nan nan nan nan nan nan 5.230268891419400461e+02 5.005840766245760278e+02 4.710879021283830070e+02 4.645930890666859909e+02 4.705498871387169970e+02 4.607075473342699752e+02 4.326181593485990220e+02 4.592998773423229864e+02 4.413072013739189856e+02 3.365851152452539736e+02 4.121416083817359777e+02 4.478863308713550282e+02 3.535111560697509958e+02 3.658660591613989936e+02 3.476166763220360281e+02 3.725508962203289798e+02 3.024225490782940255e+02 3.043385979939139929e+02 3.232656448753130007e+02 3.175227964686259838e+02 2.777586304598709717e+02 3.220401077924020115e+02 2.975214367049380257e+02 2.892677189720969864e+02 2.249537590701879992e+02 1.838387905023919870e+02 1.760280651089699973e+02 2.038262344421389969e+02 1.927068793521609962e+02 2.219364249689359951e+02 3.582152913269219994e+02 4.000061647757880223e+02 4.553395223907360219e+02 4.174115362033859924e+02 4.145300962276800192e+02 3.829391986611910284e+02 3.716691378102449903e+02 4.426654497599690217e+02 4.913097960282549934e+02 4.841631727421270170e+02 4.445803786758539786e+02 4.301603300051349947e+02 2.501528419621839987e+02 1.795803293212730125e+02 9.274535965298180429e+01 9.278548934683340121e+01 1.398374269031619974e+02 1.973402670147060007e+02 1.868184717008620055e+02 1.306789152412700048e+02 1.114426714946600043e+02 8.679471570336140474e+01 9.112061241985989568e+01 1.001758021382830037e+02 9.952211561301029974e+01 1.060612101622340049e+02 1.195928589520959946e+02 1.700901143941200075e+02 1.888020044427860000e+02 1.599873999508060081e+02 1.431540900877010074e+02 1.461114011005180089e+02 1.381108398000710054e+02 1.383033173874160013e+02 1.236285036862499993e+02 1.349192771001629865e+02 2.134545759067000006e+02 2.122012848766759987e+02 3.302850804144729864e+02 4.276155809723799734e+02 4.293990259774279821e+02 4.704053585176810088e+02 3.851204517878729803e+02 2.353687816402400017e+02 2.848959204601130182e+02 2.732204879526360060e+02 2.104200978265560025e+02 2.421427272007940132e+02 3.037208211811200158e+02 2.662379156465040069e+02 2.578857689119070074e+02 2.675059920600310193e+02 2.436145920136050051e+02 2.305163251142699892e+02 2.067156019558669868e+02 2.157710179399470007e+02 2.254249734563850041e+02 2.411199480576549945e+02 2.653125861650129877e+02 2.869099218496990034e+02 2.850009399326369817e+02 3.061691330445539734e+02 2.877526404064140024e+02 2.783256900937129785e+02 3.036200603954370081e+02 3.005994520174210152e+02 2.481922601143699865e+02 2.951315948533959954e+02 3.089208866863310163e+02 3.356053746467500218e+02 4.939248656645820006e+02 4.915212862375440181e+02 4.593022813058009888e+02 4.362883674166860146e+02 4.632583770377179917e+02 4.872641583005440111e+02 4.930023815262010203e+02 4.224777798436949752e+02 3.566250875887919847e+02 3.583177978341690277e+02 4.384370932759820221e+02 4.580893675241879919e+02 5.970099271041380007e+02 nan nan
nan nan nan nan nan nan 4.865889768491849736e+02 4.554089153988239786e+02 4.578454856093169951e+02 4.527432161213089898e+02 4.291333734268990270e+02 4.158489123002800056e+02 3.846388071497170245e+02 3.985797573017119930e+02 3.837122916986879773e+02 4.161478912421080167e+02 4.038099403147239741e+02 3.983314994547890251e+02 3.139989600311259892e+02 2.570849861600419786e+02 3.228792603674240240e+02 3.323343311763899806e+02 3.047898743569659814e+02 2.690618700950799962e+02 3.233767207350200010e+02 3.304038760043879961e+02 3.070847894249679939e+02 3.599694156569170218e+02 3.357069805252619972e+02 3.020720836941579819e+02 1.888765657982989978e+02 2.366510216476060009e+02 1.783072831166549861e+02 2.080752933428589984e+02 2.949433426941810126e+02 3.239410933796619929e+02 3.992152252975429860e+02 4.641013544894100278e+02 4.363867723784890131e+02 3.956286886702130232e+02 3.992952505540490051e+02 3.562322126958869717e+02 4.029807006612609825e+02 5.122134971842499453e+02 5.325885843832049886e+02 4.650358647319220040e+02 3.580504882563860178e+02 2.939503264694599807e+02 2.585651450107039864e+02 1.145817090236400020e+02 1.289812425076310092e+02 1.690343668280119971e+02 1.795889963416369994e+02 2.328761159113090002e+02 2.178336873467310113e+02 1.733785585071140076e+02 1.370907930510070116e+02 8.459490496976289364e+01 8.613350292303880451e+01 8.937328544290319599e+01 9.932836414570179784e+01 1.052325477397869946e+02 1.178574349789140001e+02 1.512935421478480009e+02 1.772755843933329913e+02 1.650411792731449907e+02 1.401249320284389910e+02 1.323683116280220133e+02 1.370403708331240011e+02 1.430997136327420094e+02 1.246234964450180058e+02 1.408528978765430111e+02 2.510589211394500069e+02 3.090217219690840125e+02 3.999016825021569730e+02 4.288164939073209894e+02 3.700732475375850186e+02 3.558667545135809860e+02 4.500197536494389965e+02 2.944625706983089799e+02 3.007094357204450148e+02 2.821258647751549802e+02 2.514311004131199923e+02 2.306438146268550042e+02 2.463304890134510003e+02 3.179064862954430168e+02 3.264634015280379913e+02 2.768489331501559718e+02 2.598573094940729789e+02 2.663883703863759820e+02 2.364908095139660134e+02 2.264627968805120020e+02 2.181251610166929993e+02 2.460445323748969884e+02 2.988977826050410158e+02 4.400829977337299965e+02 4.120412194262789853e+02 4.053246685764380004e+02 3.587500637662109852e+02 3.295946842479719976e+02 2.596111263059560201e+02 2.498695369200979997e+02 2.484349977245520051e+02 2.612513098870400086e+02 3.027872310961819835e+02 4.098480824648809744e+02 5.021051508527380065e+02 4.888762594495279927e+02 4.525009592609620199e+02 4.297067389959249795e+02 4.055161439566339823e+02 4.565433997044049761e+02 4.503537909355119950e+02 4.357575629582170222e+02 3.996007141575009882e+02 3.805682847838389762e+02 4.300219910079409829e+02 4.619293485708819844e+02 5.316612949201139600e+02 nan nan
nan nan nan nan nan 4.774147775167489840e+02 4.794349123435429760e+02 4.612627379038859772e+02 4.527128593160550167e+02 4.334200364476409959e+02 4.370775267064529999e+02 4.245778159544149730e+02 4.474712230073880050e+02 4.778705283118890179e+02 4.678357324767470118e+02 4.122394717234819836e+02 3.156454536346969917e+02 2.866472445850790223e+02 2.701541678923659902e+02 2.696820060019369976e+02 2.796343384148830182e+02 3.565017303170009768e+02 2.977377585134399851e+02 2.915318534233929881e+02 3.515604420310480123e+02 3.364940580874579723e+02 3.042851321717570272e+02 3.622910017040139792e+02 3.649213644126620011e+02 2.422686309212760136e+02 2.014565968983750111e+02 2.786186235520909804e+02 1.908037341192419944e+02 2.386727192109530051e+02 3.557448152231510221e+02 4.113771597630150154e+02 4.745270475816029716e+02 4.732708770393119835e+02 4.332335087244770193e+02 3.834253688253870109e+02 3.977612126262949914e+02 3.465954954812859796e+02 4.275501415032559862e+02 5.575602821468299908e+02 4.956821039031530063e+02 4.300845718034710217e+02 3.403414535466189932e+02 2.333536852691929937e+02 2.035300936343230092e+02 1.105154562096259951e+02 1.568071781988579971e+02 2.411028849595319912e+02 1.826395177479639926e+02 1.489586743492459959e+02 1.418634098908289900e+02 1.928448336345020095e+02 1.386020380547070090e+02 9.022071532556479667e+01 8.423878309874710624e+01 8.731183079806970682e+01 9.245552178722640235e+01 1.054876643927700002e+02 1.226475942188969981e+02 1.564546300274579949e+02 1.796103726536190095e+02 1.620972772099260055e+02 1.436177472608709991e+02 1.439719406995990028e+02 1.820147492664910089e+02 1.673202602443899991e+02 1.572664765373529860e+02 1.294759022155390085e+02 2.286789272818909922e+02 3.309477193925320080e+02 3.622353581336989805e+02 4.311396433570170075e+02 4.673449121727080069e+02 4.243515662473540146e+02 3.767779829802429958e+02 2.722313880236259820e+02 2.966535373790110270e+02 2.938099368010870194e+02 2.916898316873239878e+02 1.991476834866649881e+02 2.981895731917559829e+02 3.393373088721099862e+02 3.307409073111400062e+02 2.957333591856930184e+02 2.744637085914810086e+02 2.754275862852979913e+02 2.520810985358669996e+02 2.379098001779640015e+02 2.292206514799590025e+02 2.513855842910739966e+02 3.296216808856560192e+02 3.792231422152560185e+02 3.858841260007729943e+02 3.664903338866510012e+02 3.706857500287659946e+02 3.468589563981039987e+02 3.219149368682719796e+02 3.034506464432079724e+02 2.762491838294999980e+02 2.580216024733280165e+02 3.072259822494589798e+02 3.956994601276500134e+02 5.126852123688789789e+02 4.582996617589129755e+02 4.699306245722029871e+02 4.424897351006820259e+02 4.187887642546210145e+02 4.348872828324990110e+02 4.613317680592870147e+02 4.812081821965609834e+02 4.794997839539910274e+02 4.563049582857299811e+02 4.500788275581829794e+02 4.308347796810469958e+02 4.780009674949610030e+02 nan nan
nan nan nan nan nan nan 4.969824504237059841e+02 4.804892598574809881e+02 4.805970242410940045e+02 4.474671046552899725e+02 4.481883401193280179e+02 4.886368201906170157e+02 4.823521599168860234e+02 4.331269501533320181e+02 3.916403875947539746e+02 3.398553111097069745e+02 2.879586908720719975e+02 2.939860698579440168e+02 3.240007036278179839e+02 3.247192254079949976e+02 3.400069620979979845e+02 2.823561590590890091e+02 3.369371536550769974e+02 2.367348612018639926e+02 3.678931528364649921e+02 3.152130187281250073e+02 3.051866687475960020e+02 3.027742913649270236e+02 2.539492161578560001e+02 2.203090852144659948e+02 2.410499364011770069e+02 2.123699558880310008e+02 3.351875987273239730e+02 4.380699254720969975e+02 5.149801616826480313e+02 5.183103204324049784e+02 5.553535385846929557e+02 5.853185904889339781e+02 5.060635009441319880e+02 3.546981430991310162e+02 3.921371847403950142e+02 3.812783021132480030e+02 4.432885588398759751e+02 4.353956198986489881e+02 3.736257608636710188e+02 3.798925058697100212e+02 2.755314014497780022e+02 1.861189367437920055e+02 1.771324781824170032e+02 1.176174904723010002e+02 1.261268742213569993e+02 2.041349497380419962e+02 2.190587658728300084e+02 1.828255279059729901e+02 1.524660648466949908e+02 1.678076898888789970e+02 1.433723299632829935e+02 9.289259320979600432e+01 8.346689064609060438e+01 8.652851069589260646e+01 9.354772074877790544e+01 1.071183812117370024e+02 1.355866387470549910e+02 1.875914542863249892e+02 1.947040942773359973e+02 1.628831887796430067e+02 1.539818719154449980e+02 1.666646580380260048e+02 2.625247586934809760e+02 2.409537481213770036e+02 2.213694811933559947e+02 1.608845605162919981e+02 2.293808196688650014e+02 3.269369249507769837e+02 3.271258824408540136e+02 3.796728844917370225e+02 4.684125949294959810e+02 4.536745398185159956e+02 3.475033039737720060e+02 2.254939891968259928e+02 2.267074178572900109e+02 2.740374926081689750e+02 2.721017869498289770e+02 2.483051526149160111e+02 2.740712701831340041e+02 2.932266086712700144e+02 3.059360428684889825e+02 2.735145941673949892e+02 2.745069212494120166e+02 2.752905227105960080e+02 2.433463596768550019e+02 2.292659287507210024e+02 2.573864705871699812e+02 2.659774375630680083e+02 3.307647789730539785e+02 4.299973101605539796e+02 4.031734669260270039e+02 3.672033398633980141e+02 3.193820502623079847e+02 3.185735557421380122e+02 3.148490369767209813e+02 2.912964169047199903e+02 2.807351831112840159e+02 2.706577603942989754e+02 2.807584848898520136e+02 3.515518651435319839e+02 5.136476308967639852e+02 4.894375070753819728e+02 4.374102291590630216e+02 4.416705620431170018e+02 4.507902027080839957e+02 4.329369832978999852e+02 4.317124450113240073e+02 5.010448000242649869e+02 5.523289117709030052e+02 4.865622881327930145e+02 4.619253368384170244e+02 4.441987528469929885e+02 4.949520700577929802e+02 nan nan
nan nan nan nan nan nan nan nan nan nan 4.676422030328840265e+02 4.241905010089050165e+02 3.815105535716900249e+02 3.325518032069319929e+02 3.393676528513789776e+02 3.204930202681899800e+02 2.772104007769140139e+02 2.602845602892770103e+02 3.392275260119350264e+02 3.563230540487779763e+02 3.184997656961369898e+02 3.315796148086200219e+02 2.529630510257260028e+02 2.612598608052559825e+02 2.863404916387299863e+02 3.606392672685029765e+02 3.046670924516070045e+02 1.719842537330619905e+02 1.638676843924110074e+02 2.923603401338510253e+02 1.904948812246130103e+02 2.527735247685270110e+02 3.818349527140899795e+02 4.902461058233159861e+02 4.689329638848830086e+02 4.754209926495379932e+02 6.341387122432689694e+02 5.957912694541349765e+02 4.502742752189309954e+02 4.040060406975089791e+02 3.910737451694729998e+02 3.606150503635020073e+02 3.741321556113080078e+02 3.383207687241250028e+02 3.689100346392839924e+02 2.996828390676109848e+02 2.126214772959829986e+02 1.927348839585889948e+02 1.465482921227400084e+02 1.564904491509909974e+02 1.363812416961110046e+02 1.457169579998630127e+02 1.677389693989539978e+02 2.239712399495539898e+02 1.617356940470120037e+02 1.412139485279539883e+02 1.574872971016760062e+02 1.009572500130829980e+02 8.750583241407269952e+01 8.857818041046560609e+01 8.827608178480589629e+01 1.055829966288710011e+02 1.459393822232090088e+02 2.008808395710190098e+02 2.295984046814739941e+02 1.860985653108290023e+02 1.744462870855219876e+02 1.987227991554559878e+02 2.516495392878499899e+02 2.624305068127379741e+02 2.272616676617020062e+02 1.658185947544590135e+02 1.985734169137579954e+02 2.733574677859430153e+02 3.866722305199469929e+02 4.026439880489339771e+02 4.269377619855629860e+02 3.553660389552189827e+02 3.455629831317659750e+02 2.338664022970949929e+02 2.585544641262010259e+02 2.917796711719529981e+02 3.004433799229340138e+02 3.110426485817919797e+02 2.166531145667229907e+02 2.732267584872030284e+02 2.532575944366950011e+02 2.693495104211480111e+02 2.853161388232060176e+02 2.648759134735739735e+02 2.251309161782830017e+02 2.255765633892470134e+02 2.344259802752229973e+02 2.549971884209010113e+02 3.173589263632320012e+02 4.178035842143870013e+02 3.934868985321400032e+02 3.330734184275920029e+02 3.166911420120200091e+02 2.896920814661090162e+02 2.879727722963090173e+02 2.776678560248610097e+02 2.698814784384230165e+02 2.847566909390579895e+02 2.645127108475940076e+02 3.150638974847730083e+02 4.000565168223270121e+02 4.814603352263289935e+02 4.039211587884290111e+02 4.255093510071960168e+02 4.380065764560429784e+02 4.229043960972840068e+02 5.008185112652950011e+02 4.920188445039800058e+02 4.978307534372909799e+02 5.037050797721390154e+02 5.311158188776979614e+02 4.732763433537670039e+02 nan nan nan
nan nan nan nan nan nan nan nan nan 4.226120826047049945e+02 3.739500874029459965e+02 3.263418495082989921e+02 3.019146820464479788e+02 2.892970896904960227e+02 2.765377848531319955e+02 2.875948484336540218e+02 2.578130489962609886e+02 3.283183714211380106e+02 3.684531369800009770e+02 3.380487841513349849e+02 3.364409243904260052e+02 3.567505563599160041e+02 3.183925819078979771e+02 3.153492314502479985e+02 2.725970506802270279e+02 3.260108275389159758e+02 2.323039742618909997e+02 1.857352657610809956e+02 2.472322935426799972e+02 2.709183408450600155e+02 3.517118232662509740e+02 3.912335594664550058e+02 3.970086568055889984e+02 3.987572845166699835e+02 4.574720332638560194e+02 6.125172242188380096e+02 5.901758618139000419e+02 5.341091290612970397e+02 4.456561994685100103e+02 4.040984660469180199e+02 3.742901211127580154e+02 3.008524789954429934e+02 2.839333758278569917e+02 2.298504188471740122e+02 2.213313581507740082e+02 2.078689832299270108e+02 2.129845000521999907e+02 2.218062357548720058e+02 2.694364796818700256e+02 2.053031346222259970e+02 1.604911154111549934e+02 1.610321940771669915e+02 1.679942755598110011e+02 1.891223031674099957e+02 1.634991321349359907e+02 1.666156216098609946e+02 1.863371575170399979e+02 9.522598192049289878e+01 8.975314468551370339e+01 8.789043022277219563e+01 8.956657658411999989e+01 9.766832379330479341e+01 1.412905794912489910e+02 2.391663748946639885e+02 2.627818468317490215e+02 2.113185473332540028e+02 2.001972805692219879e+02 2.895395524786899841e+02 2.781179577342879838e+02 2.658815273603730134e+02 2.768060549858569743e+02 1.830125718981529985e+02 2.590084330216520243e+02 2.433745982245009998e+02 4.038626309133210270e+02 3.376192833114620271e+02 2.713481482555180264e+02 2.611545228933590010e+02 2.887016846912219989e+02 2.056892760068720065e+02 2.480205073363100041e+02 2.677505743420920226e+02 2.808353484713799730e+02 3.027405207929130029e+02 2.803041970852800091e+02 2.343815044384299995e+02 2.441228908463029939e+02 2.676021529524689981e+02 2.886521149176069798e+02 2.522343077090930024e+02 2.110286614649600097e+02 2.098758796000670088e+02 2.348915412671929914e+02 2.696642826635629717e+02 3.811864815889309739e+02 4.027978154301159748e+02 3.776853511489860011e+02 3.906129540167830214e+02 3.600818235824709745e+02 3.378601686710720173e+02 3.338344929892029995e+02 3.109354762940910177e+02 2.813772067229280083e+02 2.929036008367230011e+02 2.996653483130940003e+02 2.599310759555909840e+02 3.299964413005769757e+02 4.643975206423140207e+02 3.871073680355009969e+02 4.831740538511580212e+02 4.355390878175870171e+02 4.330064907101889844e+02 4.563308015761890033e+02 5.131576796312970146e+02 4.874123892089720016e+02 5.084832526226169875e+02 5.599421839131440493e+02 5.752632778015309896e+02 nan nan nan
nan nan nan nan nan nan nan nan nan 3.984594899984630274e+02 3.520613562188639776e+02 3.530776171708030233e+02 3.418982295123170161e+02 2.925971147149140279e+02 3.130387670081839815e+02 3.422511578807510091e+02 2.992290161180300174e+02 3.207433193661369728e+02 3.426649800492269833e+02 3.455624273918659810e+02 3.428125871070159860e+02 2.989363363568870113e+02 3.022743706808789739e+02 2.951833342583669832e+02 2.574470968510000262e+02 2.827076419511479912e+02 1.629053153035839898e+02 2.798126126188240050e+02 3.052362340901099742e+02 4.124163600799680012e+02 4.585837736148229737e+02 4.065306309831360068e+02 4.617951144631899751e+02 4.926032729824170247e+02 5.732036652295599879e+02 6.505871973134410382e+02 5.523545373216039707e+02 4.664397700816239762e+02 4.294179516534010190e+02 3.686774857186539975e+02 3.351627404044249943e+02 3.029195399418829879e+02 3.722576696805410279e+02 3.117064538625460273e+02 2.864675777080580019e+02 2.127008105026629892e+02 3.040706395832709745e+02 2.690310332980379826e+02 2.812033984345709996e+02 2.500478761394809908e+02 2.298952163939509887e+02 2.478767851998040044e+02 2.427299234637559948e+02 1.909952979238140074e+02 1.753300184390000140e+02 1.680009003790389954e+02 1.677123482206650067e+02 9.295112850922319581e+01 8.704210580810820375e+01 8.869039774193410608e+01 9.133729304385630599e+01 9.646042967046280125e+01 1.641793267244559900e+02 3.399155754205149833e+02 2.937310367038280106e+02 2.660376173619440010e+02 2.064890131490859915e+02 2.917983352292209815e+02 2.704961632100039992e+02 2.867442352013910067e+02 3.078558712243760169e+02 2.965835029099259827e+02 2.234505466031679930e+02 2.655566468311590143e+02 3.067190117660949795e+02 2.648716328892210186e+02 2.696317647003619982e+02 2.529237152484550109e+02 2.096978802765129899e+02 2.087252539396469899e+02 2.504929973000070049e+02 3.089598067324560020e+02 3.123361129100049993e+02 2.977665774625630206e+02 3.379792053693140019e+02 2.639142838481570266e+02 2.358140849820759968e+02 2.985826012092859969e+02 2.915324452557670156e+02 2.424694655460939998e+02 2.088297057050029935e+02 2.236623339004659954e+02 2.453986572341520116e+02 2.902070142898119798e+02 4.090188499415269803e+02 3.906401083446909865e+02 3.704402794974549806e+02 3.335874969944320014e+02 3.244416673014869730e+02 3.260908250482830226e+02 3.050193469152450234e+02 2.869261763332160058e+02 3.103069912988549959e+02 3.089398190315520196e+02 2.939419188082089818e+02 2.901776757311109805e+02 3.269711196692110207e+02 3.245933020722189895e+02 3.714770442725010184e+02 4.571035967615919731e+02 5.060181400409430239e+02 4.999794814471820246e+02 4.685436509964400216e+02 4.618803616278430013e+02 4.762120788039429726e+02 4.636508249074710193e+02 5.338419243258299502e+02 5.368630306781990384e+02 nan nan nan
nan nan nan nan nan nan nan nan nan nan nan 3.805335793497790178e+02 3.360937050523489802e+02 3.358725347891070214e+02 3.285168083304740207e+02 3.101540200145079780e+02 3.385688763235519900e+02 2.698702112048960089e+02 3.544863141689190229e+02 3.342867050475350084e+02 2.896398929072419719e+02 2.619332096957419935e+02 2.464876846818150113e+02 1.843347588403250086e+02 2.217516544984530071e+02 1.865691771279780085e+02 2.974840639197320229e+02 3.498641090924519972e+02 3.571930081869550122e+02 4.937808312358400258e+02 6.017571780935660399e+02 4.840100295222609930e+02 4.750010636186580086e+02 5.767901508714639931e+02 6.827948626242580303e+02 6.327201475598959632e+02 4.754963742579079735e+02 4.093631245329580111e+02 3.990741146666370014e+02 3.182555692991859928e+02 3.195264674126499926e+02 3.354620080151930210e+02 3.771500727668220065e+02 3.122089021836710003e+02 2.932644002141739747e+02 2.508719962774349881e+02 2.803868778418059833e+02 2.436007884295590031e+02 2.583706648971560185e+02 3.134073051472569773e+02 2.845948361184670148e+02 2.598824479618319856e+02 2.465879703211139997e+02 2.147571427073129939e+02 2.672085065711059997e+02 1.966887464809659889e+02 1.427780014914490039e+02 8.875336379582590496e+01 8.760682305037200024e+01 8.817005189465470494e+01 1.002511804097480024e+02 9.541523553447720474e+01 2.905144213552629822e+02 3.738089451782340120e+02 4.051853233884979772e+02 4.206103187086279718e+02 2.390217591353510045e+02 3.324261285060500200e+02 2.726296878377830240e+02 3.108191217444800145e+02 3.990401410446330033e+02 3.535468500657719915e+02 2.256644825223299904e+02 2.235418584438399989e+02 3.248358050966360224e+02 3.720843769531909970e+02 3.195558932992800010e+02 3.302777631613470248e+02 2.258153443112690013e+02 2.934897257363469976e+02 3.230223658530430271e+02 3.368121519025530120e+02 3.195812323202030143e+02 3.494297259644239944e+02 3.634968849978520211e+02 2.887224122349119853e+02 2.611437073185960003e+02 2.756662202135020152e+02 2.841867169213670081e+02 2.401945281701549959e+02 2.104574192832199913e+02 2.827273533213460155e+02 3.915411488374650162e+02 3.948682296281859863e+02 3.679652359288469938e+02 4.126357369180789760e+02 3.797440209192710086e+02 3.593731887756209744e+02 3.559527229773009935e+02 3.288845361161909864e+02 3.245405526280230220e+02 2.973449455519460116e+02 2.805066420993999827e+02 2.758697347120070162e+02 3.247917961004420135e+02 3.171374528432140210e+02 2.703807335848300113e+02 3.124359370856599867e+02 4.780014398600180243e+02 4.662867545680639978e+02 5.300087953182030560e+02 5.309429524077620499e+02 5.183451804929640048e+02 4.679875015651359718e+02 4.571134688602620031e+02 4.347081275525159754e+02 4.568127312559050210e+02 5.343714655138460330e+02 nan nan nan
nan nan nan nan nan nan nan nan nan nan nan 3.809399635541769840e+02 3.352549420698489939e+02 3.245148650716939756e+02 3.191818886822489958e+02 3.256056322086179762e+02 3.314734184843039770e+02 2.993747145499110047e+02 3.940985964986409726e+02 3.065438670937859911e+02 2.808991432351280082e+02 2.914847446330920206e+02 2.305647675972709862e+02 2.932061533137090237e+02 2.282566623583309990e+02 2.125321632089099921e+02 2.764454250654439988e+02 3.887442363208319875e+02 4.203537685283969836e+02 5.951650424288250179e+02 5.444540247089929608e+02 5.242162144719000025e+02 5.656295636252519898e+02 6.631013530376279732e+02 6.032631884182850399e+02 5.283063282326010039e+02 4.347126809894400026e+02 3.914408020904389787e+02 3.865340703038070274e+02 4.865724583489139832e+02 4.489829716002599866e+02 3.997067430101429863e+02 3.533483161705959787e+02 2.858049782917320272e+02 2.431036743304680101e+02 2.827243868601839836e+02 2.965408571603759924e+02 2.579903011359280072e+02 3.045209789679969958e+02 3.722228693897769745e+02 3.253053068551200226e+02 2.975776564378720082e+02 2.897024283560149911e+02 2.606878884452049761e+02 2.081358652959559947e+02 1.463900440730969876e+02 1.179262830830000013e+02 9.129570516530439761e+01 8.952585831610859657e+01 8.971256097396060625e+01 9.822105728991499518e+01 9.644895207685759431e+01 1.815000346723259952e+02 3.164290921144000208e+02 4.245641610752720112e+02 3.326886129595660009e+02 2.992302398974620132e+02 4.015189576398930171e+02 3.145702844080769864e+02 3.424775995223549785e+02 4.421194509290260157e+02 3.582651200387949757e+02 3.417281722730979823e+02 2.619902769343869977e+02 3.444258251229729808e+02 3.239048563579750066e+02 3.358530314871370024e+02 3.582769412700660041e+02 3.123377037322069896e+02 2.729745393530849924e+02 2.702417089598880011e+02 2.741686452732030261e+02 3.311573907015310283e+02 3.504261496972779923e+02 3.402623970945099927e+02 3.137235165239350181e+02 2.853492241810490100e+02 2.290749098780709971e+02 2.681328441611519793e+02 2.183857128265019867e+02 2.422950974938759998e+02 2.655203060933109782e+02 3.148137885468989907e+02 3.363167672789300013e+02 3.514111705978959890e+02 3.632291838828310233e+02 3.861383143887389906e+02 3.598836011566929756e+02 3.423945139165110163e+02 3.150024598470679962e+02 2.870283821735159790e+02 2.888749975371979986e+02 2.877144655316629951e+02 3.137113052485079834e+02 3.215254006065010230e+02 2.803362125200200126e+02 2.966004785451419821e+02 3.629719850900950178e+02 4.363332458490929753e+02 4.878343915909929933e+02 4.907400099477270032e+02 5.246467732046550054e+02 5.403712574737779732e+02 4.745269513883860100e+02 4.699752825954619766e+02 4.284062223202270161e+02 4.690645397229849891e+02 4.927668037722399959e+02 nan nan nan
nan nan nan nan nan nan nan nan nan nan nan 3.332718628307089830e+02 3.344342995076610237e+02 3.442930632961039805e+02 3.167522267090549803e+02 3.014917485523939717e+02 3.196906651069620011e+02 3.155905798777559994e+02 3.616660832552100260e+02 2.942622501144060152e+02 3.054583450304029952e+02 2.775982589105429952e+02 2.560804132268680178e+02 3.568128684778679940e+02 2.392806385629650094e+02 2.658378386494729853e+02 4.321700837409650262e+02 4.148663801046020012e+02 4.695189699272739858e+02 4.860935077571029979e+02 5.195183997697789664e+02 5.267355637270919715e+02 5.579225124818169661e+02 5.947517646843150487e+02 5.152038036693039658e+02 4.221083165469059963e+02 4.303925748527619817e+02 3.843371555354419797e+02 4.549891362610269994e+02 5.048815632481019975e+02 4.178865223603830259e+02 4.223669115601820181e+02 3.236086389643620009e+02 2.544956207349059980e+02 2.525893077657439960e+02 3.588161793895440042e+02 3.275831205058290152e+02 3.411433134393429896e+02 3.315018366971850128e+02 4.175536234611930126e+02 3.580727196891519952e+02 2.620091325311930177e+02 2.372253378913920017e+02 2.563073080379589896e+02 1.992867297529899986e+02 1.367107756637859950e+02 1.253957984419240006e+02 9.385611515901250357e+01 8.971788093977889389e+01 9.019814176023059815e+01 9.557389104909459832e+01 9.590271267332710181e+01 1.633012272260249915e+02 3.501558516344430245e+02 2.499330927163690035e+02 2.685437158408050209e+02 4.048009211259209792e+02 3.929777974697699960e+02 3.429140677423720263e+02 3.332925110618060103e+02 4.694312654554370283e+02 3.927937070849270071e+02 2.738817564653419936e+02 3.293087006111369988e+02 4.321367473225470235e+02 3.182099189031919764e+02 3.511543069761319771e+02 3.865660929690309899e+02 3.716064792677320270e+02 3.400306654964380186e+02 2.451261266593890014e+02 3.255153690062269902e+02 3.085605078884540262e+02 3.223787056143299878e+02 3.014564771934989835e+02 3.017734334240100225e+02 2.921969427732120153e+02 2.679302403926590159e+02 2.562832010510879854e+02 2.558586486140179943e+02 2.364394044366399896e+02 2.810435177620649938e+02 3.074790704913290256e+02 3.315297826568120172e+02 3.202633389212119823e+02 3.143759539826889977e+02 3.584252688553499979e+02 3.445996257104890219e+02 3.503678477922459820e+02 3.071494749871869772e+02 3.019929748836619865e+02 3.327362191003110183e+02 3.003562771882009770e+02 2.971979370245770156e+02 3.068652459959470207e+02 2.807053441826409994e+02 3.212843205172109720e+02 3.849301677688069958e+02 4.168334259298270013e+02 4.439664926481610223e+02 5.116086028326540145e+02 5.164101688371889622e+02 5.303440274858260182e+02 4.844595916914529994e+02 4.496945756930480229e+02 4.362989644688560134e+02 5.237765464862229692e+02 5.215906715608880404e+02 nan nan nan
nan nan nan nan nan nan nan nan nan nan nan nan 3.628888485923690155e+02 3.634692223149269807e+02 3.394716246073189723e+02 3.115341235582860122e+02 2.936630660383120244e+02 2.922536128676200065e+02 3.100091349578099766e+02 2.787014105825679735e+02 2.733734582228279919e+02 2.079749843124859865e+02 2.836299342336699851e+02 3.592763815152230222e+02 2.415725467747570008e+02 2.816592833043659994e+02 4.363211036809830148e+02 4.173929726372319919e+02 5.010025835636080274e+02 5.805121949582299976e+02 4.889111508988569881e+02 4.558826698655810219e+02 4.546993156625250094e+02 4.699308218427310067e+02 4.497455925636029974e+02 3.987474995885280009e+02 4.044323349464539774e+02 4.202581469415890183e+02 4.665664875400789811e+02 4.260149294110869960e+02 3.527832651613520056e+02 2.886863025210039950e+02 2.490580357669620071e+02 2.547221183223240075e+02 3.307364479428890149e+02 3.115115633619390110e+02 3.642944301617529845e+02 2.817677130417409899e+02 4.119231641075299990e+02 4.971881253286250057e+02 2.960284877034350188e+02 2.190473345190659984e+02 2.501635943363449996e+02 2.587429697646389855e+02 1.617991048293810081e+02 1.341658115136989977e+02 1.192085303117739983e+02 9.626013596209699585e+01 8.989707289021849590e+01 9.298808252935789653e+01 1.051765669581930069e+02 9.705666499722879337e+01 1.253078279264099990e+02 3.174810679746040023e+02 2.225205320475859878e+02 3.929102984877250151e+02 4.298982205780069989e+02 3.787494122374940275e+02 3.556154060153630212e+02 4.511471140337239945e+02 4.942982807213700198e+02 3.354396725065860210e+02 2.775191789961380096e+02 3.766444426499650149e+02 3.447217487066949957e+02 4.101532936952850150e+02 4.093150440637069778e+02 3.368879509550420153e+02 3.774654506244920071e+02 3.192489598843579870e+02 2.935599868823319980e+02 2.861351824017989998e+02 2.924937142676610051e+02 2.987682608930550145e+02 2.661056425407250003e+02 2.810797029897410084e+02 2.909214549547389765e+02 2.706525510969369748e+02 3.171926968512170220e+02 3.107417866011430192e+02 2.925541405690930219e+02 3.271896672305659877e+02 4.115341216784480025e+02 3.429797489786170104e+02 3.326836003414010179e+02 3.237944303472659726e+02 3.114056518818169934e+02 3.184637635991550155e+02 3.075486244245850003e+02 3.169586024136780225e+02 3.588876613676509919e+02 3.477022288904360039e+02 3.481806950059930159e+02 3.199163534372469826e+02 2.920549044704860080e+02 3.015708275058429990e+02 3.098778015922060263e+02 3.178609749295659981e+02 3.582208627019049914e+02 3.576447492522710263e+02 4.708898798958060183e+02 4.552064750616219726e+02 5.313904351765460206e+02 4.794693161201630005e+02 4.947633429745270064e+02 4.903530699983090244e+02 5.450259318778539637e+02 5.339918795620779974e+02 nan nan nan
nan nan nan nan nan nan nan nan nan nan nan nan nan 3.332128326862809899e+02 3.113107675529760172e+02 3.169564048797569740e+02 3.059865604742039977e+02 2.776759537284349904e+02 2.942461669207360160e+02 2.956483987772119804e+02 2.097583802293690098e+02 1.725625639418190076e+02 2.824880950699380264e+02 3.406970008063109958e+02 3.176207620130130067e+02 2.943582049343489757e+02 4.819628085821059926e+02 5.180871206007840328e+02 5.446110882704939513e+02 4.691537557743379807e+02 3.627116031776200202e+02 3.670796353306459991e+02 4.427992897775890242e+02 4.893328328894630204e+02 4.156033047206860260e+02 4.135285097042930147e+02 4.692892060094840190e+02 4.887827585965379740e+02 4.879056894636220250e+02 4.226258169199069812e+02 3.320254969388830091e+02 2.952494866367189843e+02 3.551260823689909785e+02 3.575652406713010123e+02 3.038236068348260233e+02 3.179365275301699967e+02 3.585873046541630060e+02 3.072206450601240135e+02 3.105225514305640218e+02 3.133812292556909824e+02 2.616333500870799753e+02 2.594715916929520176e+02 2.474802003391610015e+02 2.421598641448769911e+02 1.529925627788369979e+02 1.306316761053510049e+02 1.081327798496340051e+02 9.249315224517489753e+01 9.098524566781520662e+01 9.258547832933200539e+01 1.049448084720209948e+02 1.014641029620009931e+02 1.158415691142189985e+02 2.290527087455450044e+02 2.316307729137469948e+02 4.198911951211030100e+02 4.372030073892079827e+02 4.169553568863190094e+02 4.026277413570330168e+02 4.689339189829029806e+02 4.557088404624730060e+02 3.664978495587560019e+02 4.059499358362239718e+02 3.857384813196169944e+02 3.924152166676399816e+02 4.225077201082929719e+02 4.063372232212869903e+02 3.476871686415959743e+02 3.772602808852460043e+02 3.381109074806429931e+02 3.098139940111880151e+02 2.363858397611340081e+02 2.848070887766190253e+02 3.014571027325679893e+02 3.288472678183700282e+02 3.257196737147310159e+02 3.108498251205850238e+02 2.996740004281909933e+02 3.104836747558609886e+02 3.180427819236260234e+02 3.162317449242190150e+02 3.249596867578720207e+02 3.814706993290300261e+02 3.358225060150840022e+02 3.399591592790159780e+02 3.583148789513750216e+02 3.208458935167690242e+02 3.205485321940749941e+02 3.438542116312179928e+02 3.795887784107840162e+02 3.578038110696360263e+02 3.496354535862560056e+02 3.294477976734170284e+02 3.146391896554169989e+02 2.953913478330670159e+02 2.949973606505749899e+02 3.280100227762089844e+02 3.569502089659520152e+02 3.688153286957120258e+02 3.753201446892350077e+02 3.772904812970809871e+02 4.129905212448720135e+02 4.942443433332979907e+02 5.005036996348400180e+02 4.731330790503220101e+02 4.943237293185609929e+02 4.978527107602390060e+02 5.432959334829989757e+02 nan nan nan
nan nan nan nan nan nan nan nan nan nan nan nan nan 3.292354188402650266e+02 2.935587693174450123e+02 2.854859873274049846e+02 2.833267975090029722e+02 2.730924271206640128e+02 2.461189096541750132e+02 2.543749620045840061e+02 2.398848081675230048e+02 1.706948421666589866e+02 3.172546675511679837e+02 3.497452846595759866e+02 3.740853736111479861e+02 3.567893515661530159e+02 4.047498856368000020e+02 3.849697102846179746e+02 3.592053189330749774e+02 3.218134349548070077e+02 2.959824066227699859e+02 3.425691145727000162e+02 3.791739805920120148e+02 4.319498132082250095e+02 4.196928751697560074e+02 4.085307572190259862e+02 4.421022076543259800e+02 4.736773633134999955e+02 3.854867130645670272e+02 3.052376209766500210e+02 2.727323229269370017e+02 2.794031536356150127e+02 3.453788884045019927e+02 3.682384050672840203e+02 2.840655140395879812e+02 3.083285453996829801e+02 3.567288770214909732e+02 3.247146395926120022e+02 2.947077632271660264e+02 3.155773320608969925e+02 3.308479756240329834e+02 2.760259415160999765e+02 2.265150064143089992e+02 2.724965865116359964e+02 1.642516215965339939e+02 1.139704401815390042e+02 9.621984552710900118e+01 9.154358412330030603e+01 9.208606116845000145e+01 9.832680934578229426e+01 1.067602573015579992e+02 1.002061311146830036e+02 1.042861703545210048e+02 2.203800866307149988e+02 3.678809363623839772e+02 4.568586798834850242e+02 3.724406138726000108e+02 3.832175985891830123e+02 4.373098597494440014e+02 4.509437020524940181e+02 3.910905140061789780e+02 4.696891977466909793e+02 4.755492396118390275e+02 4.514995058748580163e+02 3.843683779047710232e+02 4.212560689017669802e+02 4.171793522719110001e+02 3.830654236902499861e+02 3.834516113061629881e+02 3.816345228115009718e+02 3.393275925550229886e+02 3.126069446381100079e+02 2.784603423680790115e+02 3.364302761089959972e+02 3.543350904560879826e+02 3.425533215546950032e+02 3.297597075005800207e+02 3.142676543616919957e+02 3.173672022517279743e+02 3.227567259660160062e+02 3.317583703184529895e+02 3.460185550457979957e+02 3.647875030877190170e+02 3.660967800390640150e+02 3.325308556153610198e+02 3.075850385669530169e+02 3.266258843179600149e+02 3.791352447182489982e+02 3.867486882413639933e+02 3.726099807984169843e+02 3.874872376901960251e+02 3.794775446832779835e+02 3.537403062246730201e+02 3.354772673055530277e+02 3.088682784702019717e+02 2.991869961873060220e+02 3.252587804637469731e+02 3.628376401145969794e+02 3.815097879224529720e+02 3.768450495332500054e+02 3.762122875369220196e+02 3.626655364111039717e+02 4.238486974012189989e+02 4.287878334697310265e+02 4.754704263765680139e+02 4.783778312716360119e+02 4.823151131353030223e+02 4.931844178862399986e+02 nan nan nan
nan nan nan nan nan nan nan nan nan nan nan nan 4.240657600708669861e+02 3.628825608429419844e+02 3.717183595409210284e+02 3.459197770587330183e+02 3.054786112150969757e+02 2.579534988569440088e+02 2.268603499739070060e+02 1.939583795969790003e+02 2.104668011007919972e+02 1.891013194259429895e+02 3.642984215560219923e+02 3.850549201451660224e+02 2.905190207471309805e+02 2.306318265975689883e+02 3.040761904373509878e+02 2.574261065399790027e+02 3.206382237219989975e+02 2.944476400176960169e+02 3.053349254384569917e+02 3.655238189344930220e+02 3.846051491870920245e+02 4.092149658207919742e+02 3.501984963961900235e+02 3.250947985942739820e+02 3.866810837793129849e+02 3.698201584408510030e+02 3.903252177386809763e+02 3.542587278765510064e+02 2.947120050987559807e+02 3.351914287206930112e+02 3.128734232358970075e+02 3.131345777435839750e+02 3.217230142791440244e+02 2.472225866599210065e+02 3.087698622196040219e+02 3.286012014547139870e+02 3.070205004020360207e+02 3.295289027613280268e+02 3.290976677180909746e+02 3.213648235475790216e+02 3.055255390994660161e+02 3.075705054504970235e+02 1.429450602786330080e+02 1.085320550133500035e+02 9.689383229434139366e+01 9.228766829923060300e+01 9.314923240118190506e+01 9.970610796890599659e+01 1.012355706006569989e+02 9.859270919828429669e+01 1.101886644343030071e+02 2.773316593570380064e+02 3.620936956194769891e+02 4.292251354171430080e+02 3.774661122367680264e+02 3.761041714790250126e+02 3.892102394146800179e+02 3.763435184082699720e+02 4.460353342983499942e+02 5.333560980408359455e+02 4.812642018262370129e+02 4.421563514147409819e+02 3.722516231417590120e+02 3.889562657605869731e+02 3.655976537693679802e+02 3.743036510685780058e+02 3.696500078346350051e+02 3.641145604536749829e+02 3.475935912573759765e+02 2.641817378141880113e+02 2.975271255456739823e+02 3.306748757911939833e+02 3.510555407496210023e+02 3.390096396910540193e+02 2.974360765064170096e+02 2.888412216693960204e+02 3.346386525412120250e+02 3.529552827588780133e+02 3.789911191481269839e+02 3.975615670416569856e+02 3.684205157872519862e+02 3.348932604732900131e+02 3.223217040411819880e+02 3.140669242842259905e+02 4.060041820326300126e+02 4.190620035798419849e+02 3.976524695517389887e+02 3.776828898507150143e+02 3.676183632674050159e+02 3.371431430523530253e+02 3.337889950239360246e+02 3.221076512933900062e+02 3.031958821346179889e+02 2.999512857811989761e+02 3.125321241298159975e+02 3.396184380178299875e+02 3.503688516331220058e+02 3.401119357324810153e+02 3.633072880020620232e+02 3.697556932864899863e+02 3.913396977831300205e+02 4.615615669441419868e+02 4.883035428055990224e+02 4.929777926286499792e+02 4.879014515080689876e+02 4.965992785453079819e+02 nan nan nan
nan nan nan nan nan nan nan nan nan nan nan nan nan 4.042990869463760077e+02 3.952947333127190177e+02 3.938110799959259793e+02 2.972058012208499918e+02 2.277373500727969997e+02 2.031433954757430058e+02 1.761476192424090073e+02 1.901045097962310138e+02 2.599521619311050245e+02 3.409284839167859786e+02 3.767072669308660124e+02 2.972815402212979734e+02 2.192428423461819875e+02 2.439381434425469877e+02 3.266228095073649911e+02 2.957707000700499975e+02 2.956562876520690111e+02 2.956651793032110049e+02 3.395061781886479935e+02 3.246141215973480030e+02 3.358884479520249897e+02 3.480053869347669888e+02 3.032892203439390073e+02 3.892386581622830022e+02 3.766263652568919724e+02 3.598535293921680136e+02 3.387708328924629768e+02 2.834062900097289912e+02 3.074224155213070162e+02 2.756570154199660010e+02 2.720698252471240153e+02 2.506221061124630012e+02 2.586273600690989838e+02 2.761318507826650261e+02 3.101398509412119893e+02 3.060098512928190075e+02 3.554093798204669952e+02 4.145540913180760185e+02 3.563808764400660039e+02 3.660873554818480216e+02 2.794191856336290130e+02 1.238899456408410060e+02 1.066708824456240023e+02 9.537634325409649705e+01 9.471264844306800512e+01 9.331369650694409756e+01 9.777555989140189752e+01 9.855168975469300108e+01 9.980792196388769355e+01 1.196371241059599981e+02 3.129019568418279960e+02 3.876616461379570069e+02 3.449596898372070086e+02 3.717592981142050235e+02 3.726263652003909783e+02 3.055556182029679917e+02 3.651968479025779857e+02 4.650068525525550172e+02 5.167194958807380090e+02 4.744683451968230088e+02 4.067821363909860111e+02 3.610562439162550277e+02 3.525633025666970184e+02 3.419891749287589846e+02 3.309010536694539724e+02 3.444599438699900134e+02 3.670415377534080221e+02 3.183797262202380125e+02 3.306681922671889993e+02 2.980221428890100128e+02 2.965765115967000156e+02 2.918655742890060196e+02 3.060211580555740056e+02 3.732519382970140214e+02 3.344231659011629745e+02 3.788624633065840044e+02 3.897703751083340080e+02 4.081252213903990196e+02 4.001510945454199941e+02 3.615469280022740008e+02 3.300620677698340160e+02 3.349040277664410041e+02 3.794429982048620218e+02 3.990634871383030031e+02 3.879930134991420232e+02 3.729184079770470248e+02 3.676704203500510175e+02 3.598791255247859908e+02 3.652761450698989734e+02 3.530086156544280129e+02 3.450726603166870063e+02 3.186296351267570230e+02 3.004244378215669826e+02 3.112355035514269730e+02 3.207898648403610196e+02 3.443835992416400131e+02 3.576279473947000156e+02 3.880592488498829766e+02 4.372784886935190229e+02 4.613158103387580127e+02 5.432353803668280534e+02 5.325791840725260045e+02 5.167498483443489476e+02 5.462946607944990092e+02 5.644065642259589595e+02 nan nan nan
nan nan nan nan nan nan nan nan nan nan nan nan 3.757022245276959893e+02 3.725399455232150103e+02 3.492640003300670060e+02 3.792581767469679903e+02 2.691569487196970272e+02 1.950257009488460085e+02 1.792371349140489940e+02 1.548798711327060005e+02 2.017218433694559963e+02 2.654613207488660009e+02 3.160199905675469836e+02 3.049154026319390027e+02 3.139233116056969948e+02 2.776089218396369915e+02 2.710985034229079815e+02 3.155287300672139850e+02 2.659398546576849753e+02 2.759730908290749767e+02 2.798666887221809816e+02 2.618897015033430193e+02 3.198552530136429937e+02 3.365139970384000208e+02 3.525676256473059880e+02 3.039542188403360115e+02 3.373049735694569904e+02 3.752918957752979736e+02 3.489966017484359782e+02 3.041742123593720066e+02 2.825936817706880220e+02 2.691532263357270267e+02 2.525316570229749971e+02 2.468699599535630114e+02 2.639973424684620227e+02 2.648334305480050261e+02 2.671161298058730154e+02 2.815819867366560061e+02 3.202485609051259985e+02 3.304798266046259982e+02 3.273463496719870136e+02 3.492195900313220136e+02 3.539068569888020193e+02 2.797526050237549953e+02 1.361151424904739997e+02 1.092556731958910063e+02 9.830920756872779975e+01 9.724776154655459948e+01 9.413298986142180524e+01 9.683890792804500336e+01 9.886756703278270209e+01 1.050530846358360009e+02 1.072546967278379952e+02 2.881046537473139892e+02 3.994309642290559736e+02 3.125312716704530089e+02 3.786742654273689936e+02 2.572948897445180023e+02 2.818619468510920001e+02 4.182401521566910105e+02 4.646185601866420143e+02 4.411902476350389861e+02 3.699400684142049727e+02 3.517381897327750266e+02 3.336733033971329974e+02 3.081882118556640080e+02 3.116842174107169967e+02 3.285725929513250207e+02 3.454842423630580015e+02 3.520385636543779810e+02 3.532487955445860166e+02 3.675191427403700004e+02 3.335354808200630146e+02 3.177585692283599883e+02 3.389438464017860042e+02 3.678358426522780178e+02 4.149643768503689785e+02 4.061374624498499770e+02 4.021701814442229761e+02 3.992606018019019984e+02 4.265668136247199982e+02 4.204237483563999831e+02 4.418340414366310256e+02 3.949585435373350037e+02 4.400513158475810087e+02 4.332741628722120026e+02 4.179049087625119796e+02 4.221747709518990064e+02 4.077274629088399820e+02 3.996711249859640134e+02 3.862937616847769959e+02 3.645870212059469964e+02 3.611218347050329953e+02 3.370178746401840044e+02 3.137261101859929795e+02 3.102299898752210083e+02 3.177672899420700219e+02 3.276343852670730143e+02 3.490215330286760036e+02 3.837545439392150115e+02 3.950668151053050110e+02 4.265956470955709960e+02 5.201243019375699532e+02 5.584006791300920440e+02 5.735566927573289604e+02 5.574602495754389793e+02 5.827228386619019602e+02 6.074306091387690003e+02 nan nan nan
nan nan nan nan nan nan nan nan nan nan nan 3.592745953510719801e+02 3.490004233376769776e+02 3.188016464729590211e+02 3.074261798755640029e+02 3.235760548606430120e+02 2.261615042823079875e+02 1.682077435364899998e+02 1.560707021330109967e+02 1.925115132341169897e+02 2.193987548057629908e+02 2.574677885995130282e+02 2.810412115621620046e+02 2.668550371739719935e+02 2.630334069026180259e+02 3.013254017062440084e+02 2.394511377610620002e+02 2.121694642945269891e+02 2.441537366317130022e+02 2.423850060689339898e+02 3.258852878645359965e+02 2.887904233455860208e+02 3.260087342175299909e+02 3.120032270676779831e+02 3.542241270186129896e+02 3.290937879537099775e+02 3.209988384713769847e+02 4.073747708309060158e+02 3.220273676529490103e+02 2.602608667788089747e+02 2.414272067345370090e+02 2.721209442519989921e+02 3.656571912568419975e+02 3.634904849612789803e+02 3.787707626189380221e+02 3.445195180067710226e+02 3.585705182453600059e+02 3.725910069148879984e+02 3.639091458509220161e+02 3.872375080146370010e+02 4.022348870097089844e+02 3.444542092194989777e+02 3.934649579578140219e+02 3.642149547269909817e+02 1.280844766709570024e+02 1.101849571938030010e+02 1.041387071277629985e+02 9.851820322908389471e+01 9.677847435510039986e+01 9.691340541444620271e+01 9.887504010898810236e+01 1.052835813320830027e+02 1.104030148465109988e+02 1.684489778473509887e+02 3.454730831161539868e+02 2.700524752920690048e+02 2.361408744943059901e+02 3.731930662705360078e+02 3.827659888973429929e+02 3.282895932691939720e+02 3.116300019127920109e+02 3.123506994258809755e+02 2.955175134247069764e+02 2.941745315938450176e+02 3.194940953941090243e+02 3.107226224989649950e+02 3.182246461667909898e+02 3.574283076459329891e+02 3.273691282100720059e+02 3.222578593142540058e+02 3.394902913081319866e+02 3.501855778407210096e+02 3.905094850653160279e+02 3.926722357419420177e+02 3.925703546010919922e+02 3.942951279790340209e+02 4.546170758000779983e+02 4.623472979555519942e+02 4.511957915393160192e+02 4.384382398616469914e+02 4.135718882395900096e+02 4.441372522139159855e+02 4.968325726429479801e+02 4.831748851263220104e+02 5.007411511553669925e+02 4.535282534447230205e+02 4.656672155864339970e+02 4.400639398537030047e+02 4.028832282581869890e+02 3.912061124656789843e+02 3.706992758408060240e+02 3.572077040285660132e+02 3.780531189703240216e+02 3.883688603046820162e+02 3.737281349185740282e+02 3.270528426580219730e+02 3.270843281051149916e+02 3.579348994808249813e+02 3.767885939891110070e+02 3.874440846884169787e+02 4.242384141068509962e+02 4.371068105532870050e+02 4.401162528643109795e+02 5.051549404593200165e+02 5.600287935863269695e+02 6.055514594142249507e+02 nan nan nan nan nan
nan nan nan nan nan nan nan 2.287288457978399947e+02 nan nan nan 3.269476326969249840e+02 3.004811623831590168e+02 2.869281607210800189e+02 3.121835801045380094e+02 2.851270497189199773e+02 1.931150067645550052e+02 1.612299704637759987e+02 1.842331599618279938e+02 2.070450806155930081e+02 2.112660486494849863e+02 2.624863445976309890e+02 2.542272382949030032e+02 2.441505376810090127e+02 2.279532608822520103e+02 2.409829653199749941e+02 2.726846016931839927e+02 1.962638929229669884e+02 2.032610089475070083e+02 2.377862916503549968e+02 2.535935762181210009e+02 2.675633650522140101e+02 3.178795119766289758e+02 3.318257034509459800e+02 3.249761514745380282e+02 2.911998532330300122e+02 2.894311265257130117e+02 2.891550273553610282e+02 2.720469449201660268e+02 2.628181817760039962e+02 3.374148606883110233e+02 3.631356612490719726e+02 3.501654920602180141e+02 3.970386843858719885e+02 3.724403172017990187e+02 3.622773474732110230e+02 4.003047416494280242e+02 4.290311838182039992e+02 3.988916079477720018e+02 3.951554298824440252e+02 3.807706208254949729e+02 3.212711291673800247e+02 3.325393743362649843e+02 2.305616508490080037e+02 1.272672502266780015e+02 1.146298583324920060e+02 1.071963918252219941e+02 1.066639884568890011e+02 1.014657773552149962e+02 9.551335223109849437e+01 9.988704189195779293e+01 1.045654183857059962e+02 1.053915543300889937e+02 1.866928197515049987e+02 3.169197908266090167e+02 2.037817564113690025e+02 2.222898828540230056e+02 3.040833118418329946e+02 2.665025151763330200e+02 2.513243598022760068e+02 2.198636391410529995e+02 2.660827437326490212e+02 2.774876866019390036e+02 2.975679185870019978e+02 3.162157535494230274e+02 2.705065775615800021e+02 3.080007615377859906e+02 3.231044393383360216e+02 3.086107725710280079e+02 3.041294932463779901e+02 3.055401558770170141e+02 3.246548744840849849e+02 3.334832471019440163e+02 3.624287048384350101e+02 4.399031511251799884e+02 4.418494345148760090e+02 4.423763152329839841e+02 4.675856132361420237e+02 4.750538139370220279e+02 4.528696799777000024e+02 4.066443723673920090e+02 4.408607975863860133e+02 nan nan 4.713949672886139979e+02 4.625426447415230200e+02 4.554690863928850035e+02 4.541070065040390205e+02 4.212013602080029955e+02 3.837629633383589862e+02 4.007700363113040112e+02 4.015447771407210098e+02 3.954962742125890145e+02 3.839850332723619886e+02 3.831440880674230129e+02 3.623830137239989995e+02 3.321236766654020016e+02 3.492449933212810151e+02 3.652150976024660167e+02 3.799393554322439854e+02 4.069805719839189919e+02 4.353838862494300201e+02 4.539804396668220079e+02 4.482733017666699880e+02 5.415738817426730520e+02 5.864583678475249826e+02 nan nan nan nan nan
nan nan nan nan nan 2.266993634572149858e+02 2.216235769391520023e+02 2.319483676859489947e+02 2.448832726474780088e+02 nan 2.884117264724500274e+02 2.762409867951899969e+02 2.574920183633680040e+02 2.705094661955009769e+02 3.020113961586840219e+02 3.044534993284099755e+02 2.127987600753259869e+02 1.608458639382500053e+02 1.801547121477209998e+02 2.070248151409309969e+02 2.247045542530080127e+02 2.718792050073849964e+02 2.454339403442799892e+02 2.276369806174130019e+02 2.347049382115959872e+02 2.775398319282900275e+02 3.092089492706249985e+02 2.042794561045770081e+02 1.961174288147090010e+02 2.332091695980190025e+02 2.870512966529059895e+02 2.667695424285819854e+02 3.453817445431159854e+02 2.912021430661829982e+02 3.244460022739650071e+02 2.997390450649160130e+02 2.786538707544939939e+02 2.484624339993519868e+02 2.469611121697060128e+02 3.024563173591440091e+02 3.147106089682200150e+02 3.449970853271569808e+02 3.428347484131230090e+02 3.912317116601460043e+02 3.584878630539359960e+02 3.777627262770179755e+02 4.057100750500000004e+02 4.481730525063400137e+02 4.768984756909840144e+02 4.330018401470280196e+02 3.139543738296860056e+02 4.309395314003850217e+02 4.630753608990739849e+02 1.659961343099230078e+02 1.222445872339110053e+02 1.195755331259470040e+02 1.155339718423609980e+02 1.094772888925230063e+02 1.047426984959679999e+02 9.329451703424659570e+01 1.005083685180269981e+02 1.128783544537530048e+02 1.124333718940929998e+02 1.948831371535040091e+02 2.264373573968400137e+02 1.692340452786459934e+02 1.971380841760989995e+02 2.206361552163390058e+02 2.185997583560989881e+02 2.452511059199879924e+02 2.573036948494159901e+02 2.360260304664419948e+02 3.145085111869469756e+02 2.888220630013149730e+02 3.078603628581449811e+02 2.578280555908959855e+02 2.873488279755039798e+02 3.149489718231329789e+02 2.800753819940570111e+02 3.248270587083690089e+02 3.170719298136099837e+02 3.838776210695539817e+02 4.001899001434809975e+02 3.675336990192719782e+02 4.291884565520899741e+02 4.681432420571640023e+02 4.772137398192709838e+02 4.783099847364200059e+02 4.654974712630199747e+02 4.345089464756770212e+02 3.864584303403369745e+02 4.534489504927769872e+02 nan nan nan 4.935462841877629785e+02 4.383463910301450142e+02 4.562108265274590053e+02 4.565543249296400177e+02 4.373010161507539806e+02 4.448767139997719937e+02 4.368608921604330249e+02 4.147208926145110013e+02 4.195651630102549916e+02 3.838026585337460119e+02 3.565275962200410049e+02 3.437462378292730136e+02 3.573723301872279876e+02 3.752706880551689892e+02 3.950511529228689938e+02 4.290436607485090121e+02 4.551272521181280126e+02 4.912270880376249806e+02 4.312488668252560160e+02 4.722433256061290194e+02 5.560258191753409847e+02 nan nan nan nan nan
nan nan nan nan 3.024822342301960134e+02 2.295946434855800078e+02 2.133579964500870005e+02 2.169876198844150110e+02 2.289144297633999940e+02 2.538872911969830000e+02 2.613524286838680268e+02 2.417103004193940023e+02 2.363265056129710047e+02 2.637358442554909743e+02 2.925424759245869950e+02 2.674443332404709963e+02 1.949274395858710136e+02 1.607844559620280052e+02 1.867063290108939952e+02 2.254492940913710015e+02 2.501096180135209863e+02 2.769774338389440231e+02 2.367500500793919969e+02 2.096940578804490087e+02 2.626704975314029866e+02 3.069536269183470267e+02 3.141154009211219886e+02 2.239475149914659937e+02 2.145080754220680035e+02 2.421790255322489998e+02 2.602186780802450130e+02 3.105141768652219980e+02 2.664317926648599837e+02 2.690486584273330095e+02 2.727837549590850017e+02 2.597988451702429984e+02 2.747461943012020242e+02 2.947393769334930198e+02 2.522053248882590140e+02 3.345865083749840210e+02 3.022520878660560015e+02 3.360026629234849906e+02 3.374943556183459918e+02 3.455835444291640215e+02 3.241581894482009716e+02 3.731874186151050026e+02 4.322574278507109966e+02 4.925490839118630220e+02 4.819958778600610003e+02 4.549211818543299728e+02 4.507272534785780067e+02 5.050719114458939885e+02 3.690128970391569965e+02 1.531346913260549911e+02 1.279012727192740044e+02 1.145718290167889961e+02 1.155598833517960031e+02 1.083525777871950027e+02 1.025133186449589999e+02 9.895213855306569428e+01 1.018810976978100058e+02 1.059687658660409966e+02 1.065877163352180048e+02 1.475758676824569875e+02 1.796402927658490114e+02 1.860393344342190005e+02 2.296539004528980001e+02 2.052855964972110030e+02 2.122226004623020117e+02 2.252687888963810110e+02 2.816494310364140006e+02 2.011782213384580018e+02 2.776177468053890038e+02 2.456737181095550113e+02 2.221452330262440000e+02 2.676815972498590099e+02 3.018373758476159878e+02 2.780342071817839837e+02 2.922406860201249970e+02 2.860993428929240281e+02 2.864221126904740231e+02 3.511640108516550072e+02 4.050982894399570000e+02 4.123620674813669780e+02 4.388858798530209810e+02 4.665009053314390144e+02 4.725808193194699811e+02 4.707191102785279782e+02 4.637788940899339991e+02 4.330310361991660102e+02 4.058042495677850070e+02 4.513552320117340173e+02 4.749386010917979775e+02 nan nan nan 4.742274984274969825e+02 4.483990783567829794e+02 4.348567698157099812e+02 4.106475239627039855e+02 4.266193181594089765e+02 4.393726334499280028e+02 4.236541201195499866e+02 4.085219863818990120e+02 3.982825905125610007e+02 3.948785974560610157e+02 3.629662940898439842e+02 3.620639292068129862e+02 3.735826605030060250e+02 4.123688978451360185e+02 4.419485675921740153e+02 nan 4.723069429236990118e+02 4.335550226144760018e+02 5.166559288963650260e+02 nan nan nan nan nan nan
nan nan nan 3.249985117603300182e+02 3.178529789603550171e+02 2.321314824563879995e+02 2.170892799523599876e+02 2.082413104751489925e+02 2.177398151369879997e+02 2.295207708718469917e+02 2.344946566754329922e+02 2.196948224591139933e+02 2.222190506419850067e+02 2.297419189441910135e+02 2.297254359683250016e+02 3.201841501920339965e+02 2.452718181653550005e+02 1.620041822829620060e+02 1.773835347126239981e+02 2.359987556807269868e+02 2.507872214670200037e+02 2.925609827222450008e+02 2.296231753442469881e+02 2.174590211703620071e+02 2.597467321962579945e+02 2.916055821954039970e+02 2.296500412062229941e+02 2.207478837110809877e+02 2.331582439282819905e+02 2.358212365686950136e+02 2.243415962319899961e+02 2.301177659698610114e+02 2.266706852090150051e+02 2.901067797247919771e+02 3.096652006505869963e+02 3.193389823731009756e+02 2.817505626420249882e+02 2.778401942417780219e+02 2.799153499107000016e+02 2.797991255712739758e+02 2.940332702872939876e+02 3.200625576543840225e+02 3.054343510082650255e+02 3.189597377954410149e+02 3.494688426876580252e+02 3.612542103544159886e+02 4.029040321965870248e+02 4.844792733877239925e+02 4.026102473056250233e+02 3.765172053000590040e+02 3.958646279219310031e+02 4.545972857018099944e+02 2.711494855220499858e+02 1.503237514310750100e+02 1.324884846331599988e+02 1.240600155912970024e+02 1.152643153369729987e+02 1.079068703202679984e+02 9.901537610094210606e+01 9.845025276878479303e+01 1.102482111849789987e+02 1.107230528213899987e+02 1.116900453347069941e+02 1.518516233506539947e+02 1.932111882358200035e+02 2.037961349739150023e+02 1.985545839143530031e+02 2.251460167429459887e+02 2.676585248090680125e+02 2.735111105360779788e+02 2.697135874173119987e+02 2.182294677918640105e+02 2.081092212330800066e+02 1.960427205026350066e+02 2.179542291548009985e+02 2.579158289510669988e+02 2.579343100074199810e+02 2.586341821322370151e+02 3.087820635860080074e+02 3.265939548744919989e+02 3.541247717931880175e+02 3.398793227354590272e+02 3.578223023562100025e+02 4.174767944679670109e+02 4.304165503069900183e+02 4.704500993057860114e+02 4.445237649154290125e+02 4.409837785625890092e+02 4.375202716824750269e+02 4.459730906433430278e+02 4.642416635003550027e+02 nan nan nan nan nan nan 4.727451621393749974e+02 4.667109427238279977e+02 4.595410009592379765e+02 4.341996458578410056e+02 4.264034187692190017e+02 4.156565935127139824e+02 4.121177920326820185e+02 4.032044231263300276e+02 3.858883465206080245e+02 3.637920699968860276e+02 3.598362137876579823e+02 3.856052900615940189e+02 4.028683545715940113e+02 4.307014565406850011e+02 nan nan 4.700734906444989747e+02 5.345786172087820205e+02 nan nan nan nan nan nan
nan nan nan nan 3.321634778534279917e+02 2.449104361486529911e+02 2.161439544159080128e+02 2.076488419692250034e+02 2.021886065421720104e+02 2.012206873632530062e+02 2.055610154768959887e+02 2.020191989319280026e+02 1.968041246375350113e+02 2.266163444593539964e+02 2.702051598189900119e+02 3.325230752788979771e+02 2.388042048053320059e+02 1.630254892296759976e+02 1.766953010419099996e+02 2.324674464621039931e+02 2.811710157363070266e+02 2.686915342612139739e+02 2.222486859855239913e+02 2.419840587486719983e+02 2.935888525595989904e+02 3.169421500106719805e+02 2.427372025783560048e+02 2.551600792723650102e+02 2.551207056890609977e+02 2.552787776773139967e+02 2.678223240237409755e+02 2.456559508178980025e+02 2.358449187193509999e+02 2.569459966798349910e+02 3.029530590249160014e+02 3.213449613019000140e+02 3.137027871024899923e+02 2.652810804781780121e+02 2.937550718765650117e+02 2.753059136270979934e+02 3.143411369982200085e+02 3.115270556597579912e+02 3.272307284580300006e+02 3.698029218139819818e+02 3.562763236061690009e+02 3.391607233779449757e+02 3.501070374377200096e+02 3.965146051054579743e+02 3.570583347188879770e+02 3.522643123879540212e+02 2.543951432389769991e+02 2.627394003411610015e+02 1.968609505458420017e+02 1.511953666159419924e+02 1.351878478891109978e+02 1.206543954529570044e+02 1.216492574911549980e+02 1.014875435301640039e+02 9.901364606982490102e+01 1.058447106224620029e+02 1.104685175011269962e+02 1.122702833917609979e+02 1.135353310583899997e+02 1.606323368244059964e+02 2.028901466234050019e+02 2.368590576712009863e+02 2.105177296920340098e+02 2.100686762694780043e+02 2.535658081953309875e+02 2.698038478968779827e+02 2.391912290818679878e+02 2.239187773143819982e+02 1.709582082783979899e+02 1.859092285709839985e+02 2.188265800199999944e+02 1.932778350826569920e+02 2.291743314573359953e+02 2.588140384435220085e+02 2.900419611514569738e+02 3.145179281494400243e+02 3.350097717632970102e+02 3.544819520314690067e+02 3.780292993673689921e+02 3.928899382868419821e+02 4.390512658684140206e+02 3.939376885137809836e+02 4.101694677778619962e+02 4.193930938638949897e+02 4.510470411780469817e+02 4.611303838414149823e+02 5.243428135219299975e+02 nan nan nan nan nan nan nan nan 4.666020246808340062e+02 4.483199341852960060e+02 4.328580999052899756e+02 4.194001755503400091e+02 3.932230729142979726e+02 4.047762750364569797e+02 4.020103877211000167e+02 3.771254364751409867e+02 3.849971282911579920e+02 3.736812110019440070e+02 4.132619702177669865e+02 4.420641852215679819e+02 nan nan nan nan nan nan nan nan nan nan
nan nan nan nan 3.725704994905179888e+02 3.059128613782719981e+02 2.303653928402640076e+02 2.111893148429869882e+02 2.056109574071120107e+02 2.076065324469680036e+02 2.003652300142560136e+02 1.972833418746980101e+02 2.042742722067679892e+02 2.577079398042620255e+02 3.085376635829600218e+02 3.303789752917060127e+02 2.446577864399930036e+02 1.656067739938970078e+02 1.942188651063910072e+02 2.545398748204169976e+02 2.764818875877400046e+02 2.551975009395679876e+02 2.162954700035319888e+02 2.810636497362920068e+02 3.412491540437270032e+02 3.117237793759949795e+02 2.399965776799020034e+02 2.568979102471240026e+02 2.661460271152780024e+02 2.418289393398609946e+02 2.628395923008890236e+02 3.107684219447720011e+02 2.962677865480150103e+02 3.014862467580380212e+02 3.168388459055699968e+02 3.149017198753720095e+02 2.814314211855000281e+02 3.106569276360360163e+02 2.870024412355469963e+02 2.986758591836739924e+02 2.941498939725930200e+02 3.361647736521720162e+02 3.248388572895580069e+02 3.822281899763519846e+02 3.546598306291609788e+02 3.143089261733679791e+02 2.671455884605480264e+02 3.193334598347780116e+02 3.095426631743879966e+02 2.936129936092580124e+02 3.509878062824579956e+02 2.444930046617600112e+02 1.727528894236959900e+02 1.422525815882669917e+02 1.304188614205910142e+02 1.227661771635289938e+02 1.149092051060769961e+02 1.029820258707130023e+02 1.005219490014060000e+02 1.037478494194290022e+02 1.109860651740820003e+02 1.134740933973509982e+02 1.239746021600669934e+02 1.830504281604139862e+02 2.028996755619450028e+02 2.329392909944600092e+02 2.419723786835180022e+02 2.148237983454419862e+02 2.395457933284399985e+02 2.503477778775479976e+02 2.330478111924670088e+02 2.093944453035940114e+02 1.745171087741310032e+02 1.939980409440229892e+02 2.714503083850610210e+02 2.739146971432239752e+02 2.383086805109849990e+02 2.467704495041299992e+02 2.524694435499229996e+02 3.042688324476849857e+02 4.228164327488149752e+02 3.661104504656209997e+02 4.133819018771270066e+02 3.930247117665369956e+02 4.377133004075139979e+02 4.268213768455589729e+02 4.149579589833999762e+02 4.230820773831300130e+02 4.250085956926960193e+02 4.459091274736960031e+02 4.901550343358350119e+02 nan nan nan nan nan nan nan nan nan 4.515411998217800260e+02 5.044273503657969968e+02 4.836340831117290122e+02 4.389149062272169886e+02 3.994757391179849719e+02 3.706773410670850240e+02 3.932048422087569861e+02 4.168683848593580024e+02 3.926631370368029934e+02 4.187833888405149878e+02 4.283948129707409862e+02 nan nan nan nan nan nan nan nan nan nan
nan nan nan nan nan 3.625027679611559961e+02 2.596930089303720024e+02 2.265008735984769999e+02 2.125686297814920067e+02 2.085706369199710082e+02 2.046046727262479976e+02 2.120641697085999908e+02 2.309941447551750002e+02 2.812119488205730136e+02 3.000018269230989745e+02 2.995540282565279995e+02 2.211247389669910035e+02 1.758108858104430112e+02 2.131703276231540087e+02 2.378331795521129948e+02 2.616407729514900211e+02 2.304706441467280058e+02 2.487932940495919922e+02 3.066751049278159940e+02 3.472270946086840127e+02 3.378375858735849988e+02 2.649373224487220000e+02 2.670932795702440217e+02 2.762253518231090084e+02 2.636345444172770272e+02 3.015932889320720278e+02 3.106636158369880150e+02 2.881377137516880111e+02 2.566621719075350256e+02 2.420396800465730109e+02 2.893836162005259780e+02 2.792369118088749929e+02 3.187398188048350107e+02 3.087541116618639876e+02 3.093838474053799814e+02 3.144990457634650056e+02 3.384539223675819812e+02 3.688900997143300060e+02 3.855050294320200237e+02 3.552087635846889953e+02 3.271586076926349733e+02 2.643124095404260174e+02 2.783091647519880212e+02 3.055467298771930018e+02 3.093404974371269986e+02 3.087398541293729863e+02 2.044843930522019946e+02 1.702122830074239914e+02 1.452985926340670062e+02 1.375404980706640004e+02 1.267368995435659969e+02 1.072807411054910034e+02 1.028323660022689978e+02 1.029323196747590003e+02 1.089570635103870018e+02 1.112397102613119984e+02 1.149533184441740019e+02 1.457806562555900030e+02 1.818700597956089950e+02 2.028744614847929881e+02 2.165604217976350014e+02 2.172292394679980134e+02 2.075249310065289876e+02 2.331324707526019893e+02 2.288006227457130137e+02 2.163198854223230114e+02 1.959151800562059975e+02 1.776789237469199918e+02 2.026198584511199954e+02 2.157063336224240118e+02 2.398799361914159931e+02 2.470478803329399966e+02 2.773349434830059863e+02 3.335556442658179890e+02 3.451699189965489722e+02 4.764580680778070132e+02 3.950194033882719964e+02 3.606450716116580111e+02 3.784797251512359821e+02 4.141984583356489793e+02 4.303837116329850119e+02 4.461856609415499975e+02 4.317705050277530177e+02 4.247243963224560162e+02 4.863848948907549925e+02 5.309809591642870146e+02 nan nan nan nan nan nan nan nan nan nan 4.655017545395480170e+02 4.550940500611220045e+02 4.365452382016940192e+02 4.404573999504730182e+02 3.885252067650949925e+02 4.193797415125130215e+02 4.452714733574550223e+02 4.315303990025919916e+02 4.465172708212160160e+02 4.764124134370110255e+02 nan nan nan nan nan nan nan nan nan nan
nan nan nan nan nan 3.768539571640890244e+02 3.270543602942850043e+02 2.431875873869699944e+02 2.134009239016450010e+02 2.094397497590379942e+02 2.062540309825890006e+02 2.209596835988060093e+02 2.594839512239100259e+02 2.811746630198139769e+02 2.952480311249419742e+02 2.413204668887279922e+02 1.799366824431029954e+02 1.792560922584160039e+02 2.199366782673679950e+02 2.378227026731009914e+02 2.437469581477479892e+02 2.629276983972300172e+02 2.854218051396049987e+02 2.506557833271859863e+02 3.140768049907359796e+02 3.442356662542990193e+02 2.904652274218869934e+02 2.813524969876349928e+02 2.865277395610380040e+02 2.896268238971500182e+02 2.728645595780810140e+02 2.562471539578750139e+02 2.407643480678399897e+02 2.279751062541220108e+02 2.483952435400310037e+02 2.873168456191900191e+02 3.305515198746990109e+02 3.264120800650650267e+02 3.051399432063519725e+02 3.420267473491500141e+02 3.439012127510019923e+02 3.230337808621590057e+02 3.587413035515430124e+02 3.653504406348819771e+02 3.632108411288019738e+02 3.192288861902990220e+02 3.238938160502380015e+02 2.815294777600290104e+02 3.104817714393249730e+02 3.033425311887639850e+02 2.914481041861420181e+02 1.715654080940099959e+02 1.531122667965410074e+02 1.333402994254419980e+02 1.226732576450779959e+02 1.171800521668139936e+02 1.038112488548860028e+02 1.006427058073719962e+02 1.110582717408640008e+02 1.167585242932679961e+02 1.118551910753959930e+02 1.415042088175850097e+02 1.856987344468570029e+02 1.676447452661080035e+02 1.772236936726509953e+02 2.114476089768330098e+02 2.177843668940469968e+02 2.356139986627609915e+02 2.525120030669700100e+02 2.524725848209160119e+02 2.562513493584619937e+02 2.064063902406930140e+02 1.811062464612500094e+02 2.646469189722830038e+02 2.772331096730999889e+02 2.465259023615060130e+02 3.097568174645010117e+02 3.961150115947680206e+02 4.138211779032130266e+02 4.303113791778760060e+02 4.577590654366770195e+02 4.302260570912720254e+02 3.578879215689349849e+02 3.989419956737260122e+02 3.719752648283729854e+02 4.130274730981410016e+02 4.596626333906389732e+02 4.338376829063329865e+02 4.174257016258559929e+02 4.602242754830900253e+02 5.139088424327840130e+02 nan nan nan nan nan nan nan nan nan nan nan 4.760527566419859795e+02 4.571083202691560246e+02 4.268107082682590203e+02 4.131658392721749919e+02 4.585100848260260022e+02 4.993625669202820063e+02 4.835279239755290064e+02 4.921773501624010123e+02 nan nan nan nan nan nan nan nan nan nan nan
nan nan nan nan nan nan 3.774765115318069775e+02 3.387902156186549973e+02 2.292200793145819944e+02 2.151458456614809904e+02 2.165418386989140060e+02 2.292761904419130019e+02 2.536089195566100045e+02 3.064396918396699903e+02 2.920450114962770272e+02 2.199067228651229868e+02 2.053224957235040051e+02 1.798447278518250130e+02 2.129339816133210093e+02 2.240672942717910132e+02 2.271815693309710014e+02 2.545876557491249912e+02 2.705176530545990090e+02 2.716524163667129983e+02 2.714727029699880063e+02 3.072486765932629851e+02 2.790220358785169879e+02 2.708028784195980165e+02 2.718750420354539870e+02 2.681071970713709902e+02 2.458221249315519970e+02 2.498942660910769860e+02 2.446139917654869862e+02 2.428843812124160024e+02 2.295428469667409956e+02 2.988033863591289787e+02 3.151689480406420216e+02 3.328324892645690056e+02 3.304063684569489965e+02 3.668630862542349860e+02 3.423840560812059834e+02 3.064546049508850274e+02 3.164365703707759963e+02 3.522283771663530274e+02 2.973007296175570104e+02 3.142637393744089991e+02 3.298970154444489822e+02 2.839584524425629866e+02 3.541478238958479778e+02 3.700648089711939974e+02 2.124765143532669924e+02 1.682166052022510030e+02 1.582939437236339870e+02 1.355302433599179892e+02 1.245774003519610034e+02 1.151723135596560041e+02 1.028861372639109959e+02 1.015394899233170065e+02 1.187831658739829948e+02 1.136657994912449965e+02 1.162494383673350029e+02 2.167642136389029872e+02 1.800480171685520077e+02 1.940419439442669898e+02 2.060672421300920121e+02 1.977948641754929895e+02 2.556905236969049895e+02 2.929929500098870108e+02 2.674003261807690137e+02 2.317686528333549916e+02 2.205238699423059927e+02 2.089341991007090087e+02 2.217025474922050137e+02 2.747906715846160068e+02 2.766771485973949893e+02 3.399283686991960280e+02 4.409422988861929866e+02 4.932680568333959741e+02 4.853784612785049717e+02 4.719754389731110109e+02 4.714701475078149997e+02 3.715893337477909881e+02 3.584647737458590200e+02 4.565902163921010128e+02 4.103020712098639819e+02 4.083479613677009752e+02 4.701461320678459970e+02 4.562275726775470162e+02 4.336447056844360191e+02 4.568534222336019752e+02 4.980719503291829824e+02 4.923888982410570065e+02 nan nan nan nan nan nan nan nan nan nan nan 4.726128595588210146e+02 4.358882169541299731e+02 4.392863544468600026e+02 5.166656506228509897e+02 5.459229827986530381e+02 nan nan nan nan nan nan nan nan nan nan nan nan nan
nan nan nan nan nan nan nan 3.913853749573959817e+02 3.245221835069610279e+02 2.327828940182920121e+02 2.234279609522149883e+02 2.377804095364870136e+02 2.827313304080630019e+02 2.929338278531930087e+02 2.693438318160349922e+02 2.883809946842139880e+02 2.054395949355140090e+02 1.839120296979999978e+02 2.195844899327020130e+02 2.677373897678569961e+02 2.484113091615689939e+02 2.442616504102850001e+02 2.420225148499550016e+02 2.625118163161719735e+02 2.631620999676979977e+02 2.591690955321290062e+02 2.648790717006060049e+02 2.572392392049259797e+02 2.816629004335060245e+02 2.613738271565969740e+02 2.348695292720549901e+02 2.323405224100010003e+02 2.471623657858600041e+02 2.337527971036309964e+02 2.460725198982489985e+02 2.886268966817140154e+02 3.164025404513290027e+02 3.210140972954740164e+02 3.471932041959950084e+02 3.409385983264160132e+02 3.234379314133510093e+02 3.115775340205839825e+02 3.084939786528410082e+02 2.807248579261190002e+02 3.277519973195530270e+02 3.495311711659650200e+02 3.359943969122450085e+02 3.558455903401620048e+02 3.435463319220500011e+02 2.400291232440339968e+02 1.698059045013980040e+02 1.507055608422309945e+02 1.421051215830480032e+02 1.334742849829700049e+02 1.305719205908430069e+02 1.095298168896860034e+02 1.058179661715039970e+02 1.099140744312999942e+02 1.194462231119420039e+02 1.153812972341820000e+02 1.744302275018710020e+02 2.076388811972809947e+02 2.026864089409330063e+02 2.116400477194910081e+02 2.332566346496799952e+02 2.498058446940729880e+02 3.319620191045870001e+02 3.122275925287029850e+02 3.092378421249849794e+02 2.750709489711480273e+02 2.353391466543710067e+02 2.076018831827809947e+02 2.450297027871600051e+02 2.648510595439880149e+02 2.784628643871490112e+02 3.472244936167890046e+02 4.586887494991549943e+02 4.342197658662869912e+02 4.822848459268309966e+02 4.934150882602369848e+02 4.495526440654600151e+02 4.537337360267979989e+02 3.734008200451430071e+02 4.585538982852569916e+02 4.177655944762360036e+02 3.958120126943849755e+02 4.693056677801529872e+02 4.974425344546439760e+02 4.609302036808280150e+02 4.754314596531029906e+02 4.997515439122469729e+02 5.048754008051370192e+02 nan nan nan nan nan nan nan nan nan nan nan 4.595914078207960074e+02 4.349417615412609734e+02 5.034788508059829724e+02 5.768483795750539684e+02 nan nan nan nan nan nan nan nan nan nan nan nan nan nan
nan nan nan nan nan nan nan nan 2.948549321148869922e+02 2.371909822108769959e+02 2.341587410025910003e+02 2.423212773317270035e+02 2.824004214779729978e+02 3.268004971060649950e+02 2.104705491651949956e+02 2.882687668969069819e+02 2.100835756115739912e+02 1.929590135138390110e+02 2.448330721591790109e+02 2.768053735582610102e+02 2.703214933842049845e+02 2.474851764723399867e+02 2.411727980085699983e+02 2.465246863713919936e+02 2.838870464817620132e+02 2.779668413506070124e+02 2.593893819786030122e+02 2.596174914631980073e+02 2.562490819835180105e+02 2.327428999063450021e+02 2.203669374419880000e+02 2.273471379666999894e+02 2.289419061422399864e+02 2.232504962335939922e+02 2.574912151541129788e+02 3.062674223860259985e+02 2.777718533309799795e+02 3.097563935419739778e+02 3.496568949263549939e+02 3.733810586903300077e+02 3.103106969831350170e+02 2.821715520024030184e+02 2.702728550642530081e+02 3.072853754405450104e+02 3.229382896702690005e+02 3.845234219767830268e+02 3.153883231345279796e+02 3.276478687590170011e+02 3.332529114927659748e+02 1.988374018227299871e+02 1.621047839986989914e+02 1.502355624993319907e+02 1.400711658191100071e+02 1.334822133952939964e+02 1.282044307670230125e+02 1.093845539395969979e+02 1.112556621677679942e+02 1.178308433188840070e+02 1.181689570026489946e+02 1.311865852227369942e+02 1.729844157679960119e+02 2.107575206589959862e+02 2.289586873215280036e+02 2.303488467411289946e+02 2.406332673382059966e+02 3.062976969734119734e+02 2.923017615109969825e+02 3.271612704192129968e+02 3.285805069297269938e+02 3.625448174970879904e+02 2.819294508715780125e+02 2.442876251118289872e+02 2.734803698236490277e+02 2.811843711223240234e+02 2.528221991583239969e+02 3.579862736819130191e+02 4.197158293133539928e+02 3.933580037465119972e+02 3.743786673953699733e+02 4.430167676238480112e+02 4.795648760121490000e+02 4.121356448988519787e+02 3.902735509288020239e+02 4.420625052478829957e+02 4.766453441682770062e+02 4.199130323290419824e+02 4.760170078855890097e+02 4.967521972470020160e+02 4.760011842495320025e+02 4.578655669130749857e+02 5.201358410675189816e+02 5.266987843050010270e+02 5.249194295359519629e+02 nan nan nan nan nan nan nan nan nan nan 4.591008751744640222e+02 4.491837914507530058e+02 5.617258287003919577e+02 nan nan nan nan nan nan nan nan nan nan nan nan nan nan nan
nan nan nan nan nan nan nan nan 2.663807731473789886e+02 2.240383404219390115e+02 2.287489796605119921e+02 2.506086463716229957e+02 3.162591166155929727e+02 3.040653369284580094e+02 2.808228183786549721e+02 2.516387717421739865e+02 1.899249835238040021e+02 2.123544230327599962e+02 2.446987096646979865e+02 2.531801581972640065e+02 2.773501996521330284e+02 2.451741496943350000e+02 2.416893891753150001e+02 2.737271514044750234e+02 2.650776899539250167e+02 2.556865111112049931e+02 2.577494188135710260e+02 2.372574785536870081e+02 2.311328010437869978e+02 2.269724152261080121e+02 2.279622094135399948e+02 2.336104389272989863e+02 2.207833962713899894e+02 2.311996595175419884e+02 2.764325056469650121e+02 2.573537131933319984e+02 2.773177745292740042e+02 3.200700703484309884e+02 3.286418123219830250e+02 3.696909056263179991e+02 3.411852921395270073e+02 3.284014110260329744e+02 2.741310153415499826e+02 3.438029136112249944e+02 3.168019318461350053e+02 2.765019507554139864e+02 2.738860750022810180e+02 2.937576276488999838e+02 1.974964695424500007e+02 1.693811982304970059e+02 1.705623177741640006e+02 1.628155164949629921e+02 1.488814431837299992e+02 1.313371723314010069e+02 1.115387511036859962e+02 1.083372652580380020e+02 1.148334387753619978e+02 1.181347626339420032e+02 1.267896813213729956e+02 2.143193728450810056e+02 2.041833266699979959e+02 2.163464017812549969e+02 2.452257341418780072e+02 3.057797833894110227e+02 2.893966890831259775e+02 2.725107096723820064e+02 2.685986706561490109e+02 2.864993082702770266e+02 2.784105939929630154e+02 2.376705588517490071e+02 2.535702040595450057e+02 2.511013950978260141e+02 2.434703215690389868e+02 2.243149764062879967e+02 2.588923904890979770e+02 3.200429941144699910e+02 2.997134340266929939e+02 3.162727140135110062e+02 4.307573311126939757e+02 4.058860172149890104e+02 4.058069375496889961e+02 4.345251142742740171e+02 4.208479525473509852e+02 4.026953779941270000e+02 4.185405175480429989e+02 4.719353356350420086e+02 4.540632869929430058e+02 4.637778629713340024e+02 4.942410672472170177e+02 4.600248020975179770e+02 5.112854037150599993e+02 4.994356443181010263e+02 5.290773890194809610e+02 5.248548558431480160e+02 nan nan nan nan nan nan nan nan nan nan 4.309093055385329762e+02 nan nan nan nan nan nan nan nan nan nan nan nan nan nan nan nan
nan nan nan nan nan nan nan 3.378980176141399738e+02 2.542688011217649944e+02 2.298735795907340105e+02 2.450527939075510062e+02 2.989161026570300237e+02 3.030927962051100053e+02 3.309770893388159720e+02 2.887402129252819805e+02 2.196725561640340061e+02 2.091375336544410004e+02 1.924087521679919917e+02 2.014142505745510050e+02 2.226110938975949978e+02 2.868183435330349766e+02 2.899914319049220239e+02 2.473895743862229892e+02 2.734478822072470052e+02 2.722164113833790111e+02 2.498013326788270092e+02 2.527043291975610089e+02 2.526409983440809981e+02 2.422924951903490012e+02 2.423526786099380104e+02 2.277847581783020132e+02 2.328923979704900091e+02 2.365201957049629868e+02 2.472380762300929860e+02 3.009625871967770081e+02 2.693341197804350031e+02 2.822261005191539880e+02 3.345271774010240051e+02 3.442832289433960113e+02 2.928201076967969811e+02 2.715704226698110233e+02 2.851251094652649840e+02 2.852633288895120245e+02 2.701198062695179942e+02 2.102094516315169983e+02 2.286280916763300013e+02 1.967808648039410002e+02 1.816703874656519986e+02 1.783739062489800062e+02 1.532471396299229980e+02 1.528522524803599936e+02 1.633024923535679989e+02 1.573486092258760038e+02 1.291813691287329959e+02 1.086597827957729976e+02 1.122441471123899959e+02 1.196023265847679937e+02 1.197772359090059950e+02 2.204277280610710079e+02 2.572484172310240069e+02 2.497346905950979874e+02 2.204187767800260076e+02 2.711558069616550029e+02 3.349120224327280084e+02 3.190365981724669950e+02 2.772575471093779811e+02 2.672880499030840156e+02 2.582731356463240218e+02 2.482357587606560116e+02 2.466124616781939949e+02 2.421123385510630044e+02 2.373747845029419921e+02 2.268535124111409971e+02 2.329444840890569992e+02 2.753423915880840127e+02 2.935953888622170211e+02 2.824843822382620147e+02 2.919970835772729743e+02 3.393508992381080134e+02 4.843970176045299922e+02 5.013016751232959791e+02 5.067761404006449766e+02 5.002369686119649828e+02 4.927456715066199990e+02 4.146115686086289998e+02 4.418196747018790234e+02 4.692160460480749862e+02 4.459955746969350230e+02 5.068567185245000246e+02 4.718168055562550194e+02 4.803294177102690128e+02 4.860803667045209977e+02 5.250138394174230143e+02 5.162077450001130501e+02 nan nan nan nan nan nan nan nan nan nan nan nan nan nan nan nan nan nan nan nan nan nan nan nan nan nan nan
nan nan nan nan nan nan 3.306887465570770246e+02 2.775529524769140153e+02 2.381681899122420134e+02 2.305363434992869998e+02 2.716030805766819753e+02 2.794288928729370127e+02 2.924844219150049867e+02 2.978972573999479891e+02 2.734539322104209873e+02 1.836895809537610091e+02 2.409099776639000083e+02 2.069453298895759872e+02 2.038213304673170114e+02 2.090209228784970037e+02 2.322140932130180033e+02 2.433657214534570130e+02 2.764277790312889920e+02 2.980333375516000274e+02 2.366929380622640053e+02 2.362655614978799861e+02 2.686647800426280241e+02 2.665890597334009726e+02 2.601196906033609935e+02 2.475464601743009894e+02 2.282897237247879900e+02 2.463908685626549868e+02 2.503352709646190135e+02 2.451936824887239936e+02 3.175161374310490032e+02 2.924258965960870000e+02 3.061404001220190025e+02 3.282389666422939740e+02 3.311966205410340081e+02 2.680285458784180150e+02 2.612118481428719861e+02 2.556471080771360107e+02 2.024883360983720024e+02 2.164803815375119882e+02 1.851182456784200099e+02 2.134511632632039948e+02 1.611528337879960020e+02 1.535556055383009948e+02 1.592978412080910005e+02 1.565018385179199925e+02 1.400078446643219934e+02 1.313574237783959973e+02 1.218580289282279949e+02 1.120473644548779930e+02 1.118986906270690014e+02 1.172777859009990067e+02 1.204399138512419967e+02 2.081082080325049901e+02 3.295251365826339907e+02 3.069787548673019728e+02 2.672451862262630016e+02 2.575724263369480127e+02 3.531726175912160102e+02 3.313901663946339795e+02 3.136965020840369789e+02 3.395240589762460104e+02 3.568764910753350250e+02 3.178429963861399870e+02 2.799430276888670051e+02 3.018120431978539955e+02 2.814625562853199767e+02 2.834117662948029874e+02 2.768949140341189832e+02 2.536650318012520131e+02 2.704048646609400066e+02 2.871246106583540154e+02 3.099631706659390034e+02 3.431625797125950044e+02 4.006045663788279967e+02 4.622543940174350041e+02 5.119685224226470268e+02 4.927918447844339767e+02 5.103759648904310211e+02 4.885683289072550224e+02 5.013979090510370042e+02 4.576075044654720045e+02 4.442684789074469904e+02 4.103938413739090265e+02 4.665520743693330132e+02 4.711653286354339798e+02 4.802536914740189786e+02 5.149538109647339752e+02 5.635081884021450378e+02 5.779221525693679951e+02 nan nan nan nan nan nan nan nan nan nan nan nan nan nan nan nan nan nan nan nan nan nan nan nan nan nan nan
nan nan nan nan nan nan nan 2.459719615180239884e+02 2.353104433350569877e+02 2.460528163963269890e+02 2.422028469462449891e+02 2.396968125080830134e+02 2.675909630909239922e+02 2.772753275759509961e+02 2.443033913242319954e+02 2.029246581212769911e+02 2.686166172763449822e+02 2.776146431261660155e+02 2.638349557321760130e+02 2.018075513183140117e+02 2.281481570830229941e+02 2.728949885008079832e+02 2.877285589273460005e+02 2.204805331880010044e+02 2.177074564408000015e+02 2.520612803568079983e+02 2.897087501845999782e+02 2.319726826095590013e+02 2.242958997730819988e+02 2.344015483418519921e+02 2.483220276829160014e+02 2.536275668433810040e+02 2.555212943737130047e+02 2.643328949532830165e+02 2.942102148893640106e+02 2.829253446206679996e+02 3.307305256038089851e+02 3.261326058940720145e+02 3.155259258537939786e+02 2.946919337490870134e+02 2.219130281859590070e+02 1.999821130681700083e+02 1.973940685459309918e+02 1.894136106653870115e+02 1.872264604558629912e+02 1.767500709930340008e+02 1.727846349393620073e+02 1.577506071797739935e+02 1.458665131047779937e+02 1.377610967162960094e+02 1.337806658903299990e+02 1.197775487207960055e+02 1.146319385621110030e+02 1.137312300217910064e+02 1.156249138275619970e+02 1.199973688567500005e+02 1.732966728741780003e+02 4.114514863805459868e+02 3.581659914623759846e+02 3.513136007386499955e+02 3.144650029605580244e+02 3.455042863900599741e+02 3.788276933697400182e+02 3.657301821181220021e+02 4.083076251034950133e+02 4.185493366085569846e+02 3.978122844359539840e+02 3.992912965310690083e+02 3.469098705606879776e+02 3.379314029164660269e+02 3.073912529075579982e+02 3.280213043697589796e+02 2.972741362781980001e+02 2.548741563185130019e+02 2.639040557885430189e+02 3.021825829358689930e+02 3.265902415364540161e+02 3.521077995267839924e+02 3.113116008883860104e+02 4.128148810681819896e+02 5.048945747387069787e+02 5.075815343875279950e+02 4.773082351751550050e+02 4.934378138421619724e+02 4.796433523542859803e+02 4.714017058352799836e+02 4.555713481829420175e+02 4.660382308982930226e+02 4.754071729673619870e+02 4.972560799291450166e+02 6.626101299232790325e+02 6.051250894714320339e+02 6.217972848277020148e+02 nan nan nan nan nan nan nan nan nan nan nan nan nan nan nan nan nan nan nan nan nan nan nan nan nan nan nan nan
nan nan nan nan nan nan nan 3.426464658922869830e+02 2.669051218660389964e+02 2.491896474013070133e+02 2.412516086469620120e+02 2.363993176441910009e+02 2.307356462964669959e+02 2.814149188241580077e+02 2.612604265419529952e+02 2.981071889260999797e+02 2.478285984510000048e+02 3.313437945491240271e+02 3.273573865553140081e+02 2.218163855691159938e+02 2.250891655587429909e+02 2.575119189413559866e+02 2.516965012947239870e+02 2.332616386314439865e+02 2.719743560365000121e+02 2.384459378418850122e+02 2.308270627196419866e+02 2.122295055665709924e+02 2.233455866849830045e+02 2.328220141073749971e+02 2.508025633238679859e+02 2.560426432942080055e+02 2.554330268413440024e+02 2.789802821435170017e+02 2.999438579124960143e+02 3.073833254806770015e+02 2.811601931234080212e+02 2.911253095336509773e+02 3.180938763225410071e+02 2.654109759493339880e+02 2.224050261314870056e+02 2.221037018820939863e+02 2.168814830124690047e+02 2.270310463036879867e+02 1.996221360494639896e+02 1.622181342051650006e+02 1.529897025295790058e+02 1.461270474048980077e+02 1.409636162564810036e+02 1.342950737395480019e+02 1.217912125452349983e+02 1.155287115289969933e+02 1.167507216928620011e+02 1.165058224419990012e+02 1.212560456121440069e+02 1.494850844266009915e+02 2.093039702709340020e+02 3.859524840121799798e+02 4.896874397105059984e+02 4.727554812157089827e+02 5.232203182607370309e+02 5.072080336034359789e+02 5.750843940201400528e+02 4.400237736548240264e+02 4.851219907655590191e+02 4.394696872138420076e+02 4.586886177355349901e+02 4.466032021369420022e+02 4.041245815026350101e+02 3.586215272147180144e+02 3.176576860700890279e+02 3.251971326121640118e+02 2.872604315965990054e+02 2.643438724655219971e+02 2.748554233486950125e+02 2.770777547840340276e+02 3.522252560435130135e+02 3.756671946478369932e+02 3.122557353881280164e+02 3.201351831098519938e+02 4.050643361616309903e+02 4.357166338728770256e+02 4.376138763364650117e+02 4.510634002523900108e+02 4.348787588244849758e+02 4.310311540283240106e+02 4.395486150677380124e+02 4.737129597696929864e+02 4.954606884730579850e+02 5.428145511360939963e+02 6.376897245661240277e+02 nan nan nan nan nan nan nan nan nan nan nan nan nan nan nan nan nan nan nan nan nan nan nan nan nan nan nan nan nan nan
nan nan nan nan nan nan nan nan 3.456505732343420050e+02 2.931841283966850256e+02 2.415337180562499952e+02 2.284296137150429900e+02 2.178323540291690108e+02 2.363480016057669957e+02 2.480690334687890015e+02 2.761517863407049731e+02 2.563413244284669759e+02 2.981104657101980138e+02 3.025145289990480251e+02 2.715314861195359981e+02 2.299034753363060020e+02 2.204177788660319948e+02 2.472350612057869910e+02 2.268977976965219909e+02 2.080672609135509958e+02 2.231605398180489885e+02 2.265085464851239863e+02 2.243746370002639878e+02 2.249009700071289899e+02 2.439601307616250097e+02 2.743821756238550051e+02 2.677821016696149741e+02 2.581990754951660278e+02 2.890061191191570060e+02 2.920720203526249747e+02 2.906366751434749744e+02 2.791207769129559892e+02 2.880528651041419721e+02 3.118502823804980153e+02 2.234559277920610043e+02 2.025503023715839959e+02 2.071346531989520088e+02 1.844201389821670034e+02 1.961262110009199944e+02 2.024238195166319940e+02 1.812594375048039979e+02 1.560309988478510093e+02 1.416171627640129884e+02 1.307088199414280041e+02 1.199822163984709960e+02 1.203663203733389935e+02 1.184808493640299929e+02 1.200299174160650040e+02 1.285177595347410033e+02 1.555113735159700070e+02 2.541588582639950005e+02 2.043503173078370025e+02 3.798208869313480136e+02 5.224665891295320534e+02 6.570284808275499699e+02 6.324667795915289616e+02 5.845884631248310370e+02 6.487085796086439586e+02 5.694250017784360125e+02 4.764502823367679980e+02 4.392395506072739977e+02 4.312177421213770003e+02 4.530608728758679717e+02 4.167091672245080076e+02 4.139873159225310246e+02 3.806543023130680012e+02 3.657284867406380044e+02 2.731646159948900277e+02 2.668679849409689950e+02 3.490348041585680221e+02 2.902937384351159835e+02 3.266387445376229834e+02 3.053667509254850074e+02 2.992260450004699806e+02 3.378747980922440206e+02 3.632053803096429760e+02 3.742002741166680266e+02 3.673634084960369819e+02 3.693638274721440098e+02 4.017116577103719806e+02 4.546368947952780104e+02 5.624065467462299921e+02 5.983667063805529551e+02 6.525529416633120263e+02 5.793344373144859674e+02 6.521684920342670466e+02 nan nan nan nan nan nan nan nan nan nan nan nan nan nan nan nan nan nan nan nan nan nan nan nan nan nan nan nan nan nan
nan nan nan nan nan nan nan nan nan 2.957458673431110014e+02 3.257867444130279750e+02 2.271769053651649983e+02 2.209190687323890074e+02 2.222492985578979869e+02 2.636997214978860029e+02 3.146573024365829951e+02 2.724911935778829957e+02 2.830536667249219818e+02 2.597605095723840236e+02 2.410065758709399972e+02 2.536002714498220030e+02 2.780757556894189975e+02 2.481878692431029947e+02 2.365394289727589978e+02 2.414952557700260058e+02 2.250283416967029950e+02 2.245949691010160052e+02 2.295470632909930089e+02 2.364467480937400126e+02 2.672021864837070098e+02 2.733016278628890063e+02 2.738555461269909870e+02 2.985866259687670095e+02 2.591461552052010120e+02 2.703404168145410154e+02 3.126340452511240073e+02 3.146521443691530067e+02 3.424986171580370069e+02 3.158320635399049934e+02 1.943712086321999948e+02 1.826729985063280139e+02 1.801458114749829917e+02 1.649993061484809971e+02 1.725781573834129858e+02 1.575347053006250064e+02 1.777527444344430023e+02 1.648423758482840071e+02 1.393114018472099929e+02 1.243139174999979986e+02 1.227112683631279992e+02 1.224355111848760060e+02 1.230675445979019997e+02 1.241328270060080001e+02 1.413477896141639860e+02 2.887167268150610084e+02 3.092288633806149960e+02 3.253286952008349999e+02 4.528095428497480270e+02 7.569885617780889788e+02 7.224971759305050227e+02 6.482565273687780518e+02 6.080757736129679643e+02 6.730161252420959954e+02 6.008252683798870066e+02 5.073539993313930268e+02 5.257661449458489642e+02 4.185293786741049757e+02 4.427982751986110088e+02 4.350845970880150162e+02 4.707449871494940226e+02 4.502440860996640026e+02 4.026176861254439814e+02 4.200991117933119767e+02 3.126963410210070151e+02 3.611370934212710040e+02 4.137305934812570172e+02 4.147815919372620215e+02 4.309285581839120027e+02 4.341496872220930072e+02 4.490963460349680076e+02 4.222958888038789951e+02 4.192293400626759876e+02 4.439186967314420258e+02 4.946181373654529807e+02 5.008270898319900084e+02 6.413063636285560278e+02 7.113653475543660534e+02 nan 6.631366443096590046e+02 5.583875440006039526e+02 6.412237835568599849e+02 nan nan nan nan nan nan nan nan nan nan nan nan nan nan nan nan nan nan nan nan nan nan nan nan nan nan nan nan nan nan
nan nan nan nan nan nan nan nan nan 2.914004414868940103e+02 2.826579502410630198e+02 2.408020861244060029e+02 2.245191426247500033e+02 2.477763401291759919e+02 2.974515593745430238e+02 3.255317780682220246e+02 2.853522188711210106e+02 2.077765741324739963e+02 2.299264501032579915e+02 2.498335489936710019e+02 2.315661333278929988e+02 2.587160633936920249e+02 2.686634959405340055e+02 2.641973667204280218e+02 2.515246862486480097e+02 2.463603408251869951e+02 2.431014383392430034e+02 2.459025513484050123e+02 2.613859762508179756e+02 2.763121119248519904e+02 2.739302958410959832e+02 2.864359752409320095e+02 2.797523409860399966e+02 2.688622873614569926e+02 3.111493387756009952e+02 3.424313162696769837e+02 3.136063747702029900e+02 3.622066026704010255e+02 3.100571891439340106e+02 2.149968656300459884e+02 2.238456119230189927e+02 2.108279773868580094e+02 1.962682135753410080e+02 2.126206083870769987e+02 1.606482666872529990e+02 1.436284851884030047e+02 1.449026886874609943e+02 1.273201965019480042e+02 1.257492847557279987e+02 1.240492964564780038e+02 1.259146310634869934e+02 1.266936539543730049e+02 1.277201941541020034e+02 1.680535110067380060e+02 4.021889287651339941e+02 4.071432065498240149e+02 5.489144730658939579e+02 4.345470510662950119e+02 8.233689262837920069e+02 8.434143100871190200e+02 6.836242092775020183e+02 6.781378153944069709e+02 6.842576798336359616e+02 5.755366119436810095e+02 4.932543017366380127e+02 5.413698892797369808e+02 4.897761668170589928e+02 4.667227591916490042e+02 4.557715542879399777e+02 4.907630390417339754e+02 4.840510981862669837e+02 4.197983711765160137e+02 4.056697243913729949e+02 3.820774563974729858e+02 3.132411837392360212e+02 3.108574720966499854e+02 3.521636912839920228e+02 3.521529675495739866e+02 3.764436327081240279e+02 3.573632020179219921e+02 3.576202015629630182e+02 3.793352634976109812e+02 4.119764041116919771e+02 4.986906335425820203e+02 5.963504414525240236e+02 6.695729290736660460e+02 7.258735100928420252e+02 nan 6.784577852819679720e+02 6.246080905877820442e+02 nan nan nan nan nan nan nan nan nan nan nan nan nan nan nan nan nan nan nan nan nan nan nan nan nan nan nan nan nan nan nan
nan nan nan nan nan nan nan nan nan 3.430989266080999869e+02 3.002466072581090089e+02 2.315545227226259897e+02 2.448192148803750001e+02 2.852598270338809812e+02 2.808079562341250153e+02 3.698544743184700110e+02 3.388629344468109821e+02 2.226558654447630090e+02 2.173628616642149893e+02 2.420566552024289990e+02 2.535387331336700072e+02 2.618990863448399864e+02 2.579877470182329944e+02 2.297777526670330133e+02 2.419129214315800027e+02 2.560234542626329812e+02 2.540826016448640132e+02 2.525584553134090129e+02 2.527530534369309976e+02 2.877014129548339838e+02 2.893113335940939805e+02 2.969882813836860009e+02 2.848437330082700214e+02 3.020672171881359986e+02 3.381997902574900081e+02 3.733385711061220036e+02 3.970816953007089865e+02 4.786136353769809944e+02 3.066101562438299766e+02 2.745748403112349934e+02 2.377572573369689906e+02 2.157134030906759961e+02 2.263810385691880072e+02 1.865231381833299906e+02 1.674871412891999967e+02 1.422409277816730082e+02 1.339379100031599990e+02 1.281636496728380052e+02 1.263060692900010054e+02 1.281887218713360141e+02 1.284109474118230025e+02 1.299208896928759884e+02 1.328169166328200106e+02 2.271987520475780116e+02 5.452419620935589819e+02 6.933995078986389444e+02 7.310849540853040480e+02 5.576863591465239551e+02 8.909952589017619857e+02 6.880376406385939845e+02 7.200063385564959617e+02 6.913325884126429628e+02 6.298660337963480060e+02 5.602788994346659592e+02 4.895466697339929851e+02 5.477883103552029525e+02 5.122211036615580042e+02 4.688228279174139743e+02 4.453294289693740211e+02 4.813327199237310197e+02 4.705114012511569968e+02 4.448793895302479768e+02 3.963063580415629872e+02 3.611609430419979958e+02 3.386892303007850273e+02 3.095989774989560033e+02 3.007519344205929883e+02 3.341587259875660152e+02 3.596700301811429767e+02 3.733813704546250278e+02 3.575692974592250266e+02 3.501613288858790156e+02 3.725412895887579907e+02 4.269557510270179819e+02 6.188366128103440360e+02 6.667326844380810371e+02 6.714855702417910379e+02 nan nan nan nan nan nan nan nan nan nan nan nan nan nan nan nan nan nan nan nan nan nan nan nan nan nan nan nan nan nan nan nan nan nan
